-0.995 -0.968 -1.101 -1.235 -1.17 -1.013 -0.852 -0.815 -0.811 -0.853 -0.876 -0.949 -1.073 -1.038 -0.819 -0.798 -0.809 -0.806 -0.778 -0.948 -1.019 -1.089 -1.159 -1.09 -1.086 -0.981 -0.981 -0.901 -0.761 -0.783 -1.156 -1.162 -1.168 -1.174 -0.922 -0.809 -0.884 -0.843 -0.876 -0.862 -1.078 -1.051 -0.975 -0.847 -0.895 -0.964 -1.054 -1.065 -1.077 -0.891 -0.942 -0.91 -0.929 -1.025 -1.147 -1.053 -1.023 -1.229 -1.174 -1.123 -1.197 -1.271 -1.135 -1.276 -1.276 -1.302 -1.341 -1.089 -0.889 -0.895 -0.908 -1.038 -0.968 -0.911 -0.882 -1.009 -1.117 -1.124 -1.104 -1.111 -1.11 -1.16 -1.119 -1.039 -1.1 -0.845 -0.726 -0.692 -0.696 -0.948 -0.977 -0.953 -0.969 -1.021 -1.076 -0.964 -0.954 -1.025 -1.064 -1.086 -1.119 -1.193 -1.194 -1.218 -1.211 -1.14 -1.105 -1.09 -1.204 -1.175 -1.13 -1.195 -1.349 -1.301 -1.332 -1.332 -1.285 -1.195 -1.06 -1.079 -1.067 -1.032 -1.03 -0.999 -1.202 -1.335 -1.3 -1.211 -1.157 -1.232 -1.258 -1.266 -1.247 -1.222 -1.207 -1.309 -1.135 -1.153 -1.149 -1.139 -1.112 -1.126 -1.142 -1.153 -1.172 -1.098 -1.086 -1.073 -0.997 -1.017 -1.088 -1.109 -1.077 -1.015 -1.019 -1.067 -1.151 -1.057 -1.001 -0.949 -0.886 -0.841 -0.879 -0.954 -1.085 -1.102 -1.138 -1.167 -1.162 -1.178 -1.09 -0.958 -0.727 -0.649 -0.725 -0.723 -0.711 -0.621 -0.627 -0.754 -0.844 -0.941 -1.158 -1.119 -1.001 -0.872 -0.813 -0.778 -0.726 -0.772 -0.748 -0.639 -0.597 -0.602 -0.673 -0.75 -0.771 -0.724 -0.657 -0.673 -0.741 -0.774 -0.779 -0.932 -0.891 -0.8 -0.857 -0.862 -0.955 -0.839 -0.908 -1.001 -1.041 -1.047 -1.11 -1.054 -1.031 -1.019 -1.008 -0.996 -0.985 -0.973 -0.961 -0.95 -0.938 -0.927 -0.885 -0.862 -0.838 -0.815 -0.822 -0.83 -0.838 -0.845 -0.853 -0.86 -0.868 -0.876 -0.883 -0.891 -0.898 -0.906 -0.913 -0.921 -0.928 -0.936 -0.943 -0.951 -0.959 -0.966 -0.974 -0.981 -0.989 -0.996 -1.004 -1.011 -1.019 -1.026 -1.034 -1.042 -0.952 -0.951 -0.951 -0.948 -1.019 -1.004 -0.988 -0.972 -0.956 -0.94 -0.925 -0.909 -0.893 -0.877 -0.862 -0.846 -0.845 -0.853 -0.861 -0.868 -0.876 -0.883 -0.891 -0.899 -0.907 -0.914 -0.922 -0.93 -0.937 -0.945 -0.953 -0.96 -0.968 -0.976 -0.983 -0.991 -0.998 -1.006 -1.014 -1.021 -1.029 -1.037 -1.044 -1.057 -1.072 -1.087 -1.102 -1.074 -1.025 -0.975 -0.925 -0.876 -0.872 -0.878 -0.885 -0.891 -0.897 -0.903 -0.909 -0.915 -0.904 -0.893 -0.882 -0.881 -0.885 -0.889 -0.893 -0.897 -0.901 -0.905 -0.909 -0.913 -0.917 -0.921 -0.925 -0.929 -0.933 -0.937 -0.941 -0.945 -0.949 -0.953 -0.957 -0.961 -0.965 -0.969 -0.973 -0.977 -0.981 -0.985 -0.989 -0.993 -0.997 -1.001 -1.005 -1.009 -1.013 -1.017 -1.021 -1.025 -1.029 -1.033 -1.037 -1.041 -1.045 -1.049 -1.051 -1.051 -1.051 -1.05 -1.05 -1.05 -1.049 -1.049 -1.048 -1.048 -1.048 -1.047 -1.057 -1.064 -1.039 -1.015 -0.991 -0.966 -0.942 -0.91 -0.873 -0.836 -0.799 -0.762 -0.725 -0.718 -0.722 -0.725 -0.728 -0.732 -0.735 -0.738 -0.742 -0.745 -0.748 -0.752 -0.755 -0.758 -0.762 -0.765 -0.768 -0.771 -0.775 -0.788 -0.798 -0.808 -0.808 -0.809 -0.809 -0.81 -0.81 -0.81 -0.811 -0.811 -0.812 -0.812 -0.816 -0.827 -0.839 -0.85 -0.862 -0.873 -0.885 -0.905 -0.926 -0.947 -0.968
-0.953 -0.867 -0.891 -1.046 -1.109 -0.9 -0.88 -0.815 -0.764 -0.741 -0.893 -1.046 -1.309 -1.141 -0.952 -0.904 -0.841 -0.818 -0.869 -0.846 -1.086 -1.156 -1.227 -1.08 -1.06 -1.099 -1.03 -0.926 -0.937 -1.028 -1.159 -1.235 -1.264 -1.183 -1.009 -0.851 -0.914 -0.846 -0.627 -0.679 -0.937 -1.146 -0.929 -0.813 -0.847 -0.976 -0.99 -1.002 -1.013 -0.901 -0.932 -0.891 -0.982 -1.173 -1.302 -1.166 -0.94 -1.024 -1.25 -1.213 -1.041 -1.003 -0.906 -1.064 -1.102 -1.244 -1.258 -1.007 -0.881 -0.899 -0.876 -0.903 -1.258 -0.952 -1.071 -1.144 -1.03 -0.986 -1.053 -1.068 -1.075 -1.15 -1.047 -1.025 -1.104 -0.931 -0.81 -0.706 -0.714 -0.812 -0.862 -0.89 -0.852 -0.847 -0.717 -0.775 -0.84 -0.905 -1.012 -1.072 -1.121 -1.149 -1.197 -1.363 -1.313 -1.167 -1.124 -1.131 -1.115 -1.075 -1.11 -1.263 -1.289 -1.267 -1.313 -1.311 -1.294 -1.281 -1.253 -1.114 -1.109 -1.125 -1.196 -1.25 -1.342 -1.352 -1.332 -1.175 -1.115 -1.224 -1.261 -1.294 -1.308 -1.264 -1.307 -1.286 -1.181 -1.183 -1.18 -1.142 -1.101 -1.081 -1.168 -1.144 -1.012 -0.971 -1.011 -1.054 -1.019 -1.042 -1.086 -1.122 -1.11 -1.033 -0.999 -1.083 -1.191 -1.249 -1.245 -1.141 -0.944 -0.835 -0.851 -1.15 -1.038 -1.093 -1.142 -1.214 -1.182 -1.204 -1.114 -1.049 -0.953 -0.743 -0.753 -0.768 -0.786 -0.689 -0.645 -0.807 -0.897 -0.873 -1.067 -1.036 -0.947 -0.954 -0.868 -0.824 -0.77 -0.808 -0.799 -1.091 -0.756 -0.688 -0.745 -0.774 -0.619 -0.559 -0.587 -0.624 -0.676 -0.741 -0.789 -0.895 -0.888 -0.874 -0.858 -0.999 -1.071 -0.909 -0.969 -1.025 -1.084 -1.079 -1.036 -1.011 -0.967 -0.956 -0.944 -0.933 -0.921 -0.909 -0.898 -0.886 -0.875 -0.863 -0.852 -0.74 -0.815 -0.802 -0.81 -0.817 -0.825 -0.833 -0.84 -0.848 -0.855 -0.863 -0.871 -0.878 -0.886 -0.893 -0.901 -0.908 -0.916 -0.923 -0.931 -0.938 -0.946 -0.954 -0.961 -0.969 -0.976 -0.984 -0.991 -0.999 -1.009 -1.018 -1.027 -1.037 -0.949 -0.954 -0.954 -0.949 -1.017 -0.998 -0.983 -0.968 -0.952 -0.936 -0.92 -0.904 -0.889 -0.873 -0.857 -0.844 -0.851 -0.859 -0.867 -0.874 -0.882 -0.89 -0.898 -0.905 -0.913 -0.92 -0.928 -0.936 -0.943 -0.951 -0.959 -0.966 -0.974 -0.982 -0.989 -0.997 -1.005 -1.012 -1.02 -1.028 -1.035 -1.043 -1.05 -1.062 -1.077 -1.092 -1.107 -1.07 -1.02 -0.97 -0.921 -0.871 -0.871 -0.877 -0.883 -0.889 -0.895 -0.901 -0.908 -0.904 -0.894 -0.883 -0.877 -0.881 -0.885 -0.889 -0.893 -0.897 -0.901 -0.905 -0.909 -0.913 -0.918 -0.922 -0.926 -0.93 -0.934 -0.938 -0.942 -0.946 -0.95 -0.954 -0.958 -0.962 -0.966 -0.97 -0.974 -0.978 -0.982 -0.986 -0.99 -0.994 -0.998 -1.002 -1.006 -1.01 -1.014 -1.018 -1.022 -1.026 -1.03 -1.034 -1.038 -1.042 -1.046 -1.05 -1.051 -1.051 -1.051 -1.05 -1.05 -1.05 -1.049 -1.049 -1.049 -1.048 -1.048 -1.047 -1.071 -1.054 -1.03 -1.005 -0.981 -0.957 -0.932 -0.895 -0.857 -0.82 -0.783 -0.746 -0.715 -0.719 -0.722 -0.725 -0.728 -0.732 -0.735 -0.738 -0.742 -0.745 -0.748 -0.752 -0.755 -0.758 -0.762 -0.765 -0.768 -0.772 -0.775 -0.788 -0.798 -0.808 -0.808 -0.808 -0.809 -0.809 -0.81 -0.81 -0.81 -0.811 -0.811 -0.812 -0.819 -0.831 -0.842 -0.854 -0.866 -0.877 -0.893 -0.914 -0.935 -0.955 -0.976
-0.98 -0.933 -1.182 -1.105 -1.036 -0.974 -0.859 -0.807 -0.786 -0.786 -0.838 -0.949 -1.129 -0.961 -1.009 -1.048 -0.851 -0.904 -0.732 -0.784 -0.856 -0.954 -1.029 -1.342 -1.122 -1.222 -1.129 -1.122 -1.098 -1.033 -1.147 -1.27 -1.312 -1.288 -1.136 -1.002 -0.874 -0.771 -0.678 -0.715 -0.988 -1.06 -1.037 -0.994 -0.988 -0.916 -0.863 -0.874 -0.986 -0.877 -0.843 -0.814 -1.033 -1.106 -1.292 -1.226 -1.015 -1.016 -1.304 -1.27 -1.018 -0.9 -0.888 -0.952 -1.224 -1.333 -1.066 -0.903 -0.786 -0.774 -0.841 -0.882 -0.864 -0.855 -1.04 -1.011 -0.968 -0.984 -0.978 -0.983 -0.981 -1.081 -1.03 -1.018 -0.942 -0.936 -0.798 -0.704 -0.736 -0.781 -0.812 -0.777 -0.779 -0.773 -0.708 -0.792 -0.85 -0.993 -0.982 -1.011 -1.053 -1.09 -1.075 -1.271 -1.25 -1.176 -1.138 -1.128 -1.083 -1.065 -1.127 -1.166 -1.15 -1.149 -1.278 -1.347 -1.313 -1.294 -1.271 -1.181 -1.272 -1.214 -1.302 -1.363 -1.478 -1.473 -1.398 -1.311 -1.255 -1.24 -1.274 -1.294 -1.311 -1.255 -1.329 -1.279 -1.178 -1.177 -1.174 -1.14 -1.113 -1.1 -1.125 -1.057 -0.836 -0.859 -0.926 -0.982 -1.028 -1.077 -1.109 -1.086 -1.069 -1.02 -0.981 -1.093 -1.312 -1.35 -1.298 -1.265 -1.109 -0.983 -0.938 -1.05 -0.948 -0.916 -1.029 -1.103 -1.169 -1.233 -1.263 -1.08 -1.011 -0.914 -0.766 -0.776 -0.752 -0.705 -0.744 -0.825 -0.891 -0.913 -0.916 -0.917 -0.934 -0.953 -0.941 -0.863 -0.839 -0.857 -0.849 -1.031 -0.878 -0.852 -0.856 -0.768 -0.648 -0.51 -0.426 -0.54 -0.609 -0.624 -0.708 -0.812 -0.862 -0.854 -0.855 -0.89 -0.994 -1.001 -1.012 -1.031 -1.066 -1.067 -1.025 -0.969 -0.912 -0.892 -0.881 -0.869 -0.857 -0.846 -0.834 -0.823 -0.811 -0.763 -0.752 -0.715 -0.676 -0.79 -0.797 -0.805 -0.813 -0.82 -0.828 -0.835 -0.843 -0.85 -0.858 -0.866 -0.873 -0.881 -0.889 -0.899 -0.908 -0.917 -0.927 -0.936 -0.946 -0.955 -0.964 -0.974 -0.983 -0.992 -1.002 -1.011 -1.02 -1.03 -1.039 -1.049 -1.058 -0.964 -0.967 -1.041 -1.019 -0.996 -0.983 -0.96 -0.946 -0.931 -0.916 -0.9 -0.884 -0.753 -0.853 -0.85 -0.857 -0.865 -0.873 -0.88 -0.888 -0.896 -0.904 -0.911 -0.919 -0.927 -0.934 -0.942 -0.95 -0.957 -0.965 -0.972 -0.98 -0.988 -0.995 -1.003 -1.011 -1.018 -1.026 -1.034 -1.041 -1.049 -1.057 -1.068 -1.083 -1.098 -1.113 -1.065 -1.015 -0.965 -0.916 -0.866 -0.869 -0.875 -0.881 -0.888 -0.894 -0.9 -0.905 -0.894 -0.883 -0.874 -0.878 -0.882 -0.886 -0.89 -0.894 -0.898 -0.902 -0.906 -0.91 -0.914 -0.918 -0.922 -0.926 -0.93 -0.934 -0.938 -0.942 -0.946 -0.95 -0.954 -0.958 -0.962 -0.966 -0.97 -0.974 -0.978 -0.982 -0.986 -0.99 -0.994 -0.998 -1.002 -1.006 -1.01 -1.014 -1.018 -1.022 -1.026 -1.03 -1.034 -1.038 -1.042 -1.046 -1.05 -1.052 -1.051 -1.051 -1.05 -1.05 -1.05 -1.049 -1.049 -1.049 -1.048 -1.048 -1.048 -1.069 -1.045 -1.02 -0.996 -0.972 -0.947 -0.916 -0.879 -0.842 -0.804 -0.767 -0.73 -0.715 -0.719 -0.722 -0.725 -0.729 -0.732 -0.735 -0.739 -0.742 -0.745 -0.748 -0.752 -0.755 -0.758 -0.762 -0.765 -0.768 -0.772 -0.775 -0.788 -0.799 -0.807 -0.808 -0.808 -0.808 -0.809 -0.809 -0.81 -0.81 -0.811 -0.811 -0.812 -0.823 -0.835 -0.846 -0.858 -0.869 -0.881 -0.902 -0.923 -0.943 -0.964 -0.985
-1.028 -1.097 -1.141 -1.128 -1.059 -1.042 -0.988 -0.865 -0.819 -0.772 -0.715 -0.708 -0.887 -0.988 -1.161 -0.989 -0.922 -0.803 -0.699 -0.667 -0.919 -1.093 -1.023 -1.151 -1.115 -1.06 -1.02 -1.114 -1.111 -1.082 -1.138 -1.143 -1.145 -1.229 -1.136 -1.134 -0.906 -0.719 -0.715 -0.824 -1.051 -1.112 -1.073 -1.082 -1.044 -0.847 -0.779 -0.853 -0.996 -0.933 -0.906 -0.963 -1.01 -1.547 -1.484 -1.283 -1.237 -1.121 -1.176 -1.097 -0.859 -0.815 -0.836 -0.944 -1.186 -1.129 -1.044 -0.854 -0.74 -0.681 -0.912 -0.971 -0.842 -0.815 -0.844 -0.877 -0.837 -0.801 -0.801 -0.98 -0.967 -1.089 -1.008 -0.945 -0.942 -0.907 -0.77 -0.745 -0.745 -0.828 -0.818 -0.784 -0.782 -0.709 -0.71 -0.761 -0.769 -0.924 -0.942 -1.109 -1.013 -1.042 -1.063 -1.107 -1.115 -1.145 -1.14 -1.112 -1.045 -1.007 -1.149 -1.149 -1.125 -0.985 -1.147 -1.311 -1.305 -1.413 -1.302 -1.264 -1.369 -1.403 -1.321 -1.414 -1.473 -1.464 -1.438 -1.427 -1.389 -1.344 -1.366 -1.207 -1.217 -1.187 -1.192 -1.189 -1.15 -1.131 -1.147 -1.133 -1.129 -1.099 -1.072 -0.998 -0.879 -0.885 -0.86 -0.897 -1.05 -1.13 -1.165 -1.094 -1.057 -1.06 -1.069 -1.136 -1.287 -1.339 -1.336 -1.266 -1.257 -1.178 -1.099 -0.913 -0.906 -0.833 -0.988 -1.069 -1.186 -1.236 -1.263 -1.044 -0.997 -0.888 -0.853 -0.834 -0.776 -0.755 -0.821 -0.882 -0.876 -0.887 -0.821 -0.828 -0.952 -0.972 -0.973 -0.909 -0.914 -0.892 -1.033 -0.992 -0.954 -1.039 -1.003 -0.83 -0.8 -0.669 -0.46 -0.51 -0.578 -0.579 -0.614 -0.727 -0.757 -0.857 -0.899 -0.918 -1.006 -1.021 -1.018 -1.013 -1.021 -1.014 -1.015 -0.926 -0.87 -0.829 -0.817 -0.805 -0.794 -0.782 -0.771 -0.77 -0.779 -0.702 -0.709 -0.68 -0.67 -0.674 -0.788 -0.798 -0.807 -0.817 -0.826 -0.836 -0.845 -0.854 -0.864 -0.873 -0.882 -0.892 -0.901 -0.911 -0.92 -0.929 -0.939 -0.948 -0.957 -0.967 -0.976 -0.985 -0.995 -1.004 -1.014 -1.023 -1.032 -1.042 -1.051 -1.06 -1.057 -1.052 -1.046 -1.041 -1.032 -1.01 -0.988 -0.965 -0.949 -0.926 -0.908 -0.893 -0.762 -0.749 -0.748 -0.856 -0.864 -0.871 -0.879 -0.887 -0.894 -0.902 -0.91 -0.917 -0.925 -0.933 -0.94 -0.948 -0.956 -0.963 -0.971 -0.979 -0.986 -0.994 -1.002 -1.009 -1.017 -1.025 -1.032 -1.04 -1.047 -1.055 -1.063 -1.073 -1.088 -1.103 -1.11 -1.06 -1.01 -0.961 -0.911 -0.861 -0.868 -0.874 -0.88 -0.886 -0.892 -0.898 -0.895 -0.884 -0.873 -0.874 -0.878 -0.882 -0.886 -0.89 -0.894 -0.898 -0.902 -0.906 -0.91 -0.914 -0.918 -0.922 -0.926 -0.93 -0.934 -0.938 -0.942 -0.946 -0.95 -0.954 -0.958 -0.962 -0.966 -0.97 -0.974 -0.978 -0.982 -0.986 -0.99 -0.994 -0.998 -1.002 -1.006 -1.01 -1.014 -1.018 -1.022 -1.026 -1.03 -1.034 -1.038 -1.042 -1.046 -1.05 -1.052 -1.051 -1.051 -1.051 -1.05 -1.05 -1.049 -1.049 -1.049 -1.048 -1.048 -1.059 -1.06 -1.036 -1.011 -0.987 -0.962 -0.937 -0.9 -0.863 -0.826 -0.789 -0.751 -0.714 -0.715 -0.719 -0.722 -0.725 -0.729 -0.732 -0.735 -0.739 -0.742 -0.745 -0.749 -0.752 -0.755 -0.759 -0.762 -0.765 -0.768 -0.772 -0.776 -0.789 -0.799 -0.807 -0.807 -0.808 -0.808 -0.808 -0.809 -0.809 -0.81 -0.81 -0.811 -0.815 -0.827 -0.838 -0.85 -0.862 -0.873 -0.89 -0.911 -0.931 -0.952 -0.973 -0.994
-1.194 -1.202 -1.123 -1.124 -1.124 -1.089 -1.107 -1.03 -0.935 -0.754 -0.714 -0.722 -0.856 -1.153 -1.058 -1.088 -0.99 -0.803 -0.676 -0.641 -0.823 -1.003 -0.95 -1.042 -1.07 -1.023 -1.036 -1.06 -1.128 -1.093 -1.123 -1.107 -0.979 -1.031 -1.122 -1.135 -0.864 -0.766 -0.728 -0.888 -1.196 -1.252 -1.146 -1.117 -1.057 -0.891 -0.826 -0.892 -0.978 -0.964 -0.95 -1.01 -1.161 -1.379 -1.405 -1.295 -1.282 -1.228 -1.14 -0.998 -0.81 -0.758 -0.846 -1.155 -1.136 -1.19 -1.165 -1.168 -1.194 -0.963 -0.903 -0.936 -0.806 -0.748 -0.803 -0.791 -0.815 -0.738 -0.716 -0.902 -0.951 -1.1 -0.997 -0.98 -0.924 -0.808 -0.725 -0.757 -0.749 -0.901 -0.99 -0.864 -0.771 -0.639 -0.696 -0.774 -0.821 -0.88 -0.893 -0.916 -0.945 -0.961 -1.004 -1.058 -1.057 -1.196 -1.15 -1.046 -0.921 -0.987 -1.121 -1.159 -1.159 -1.111 -1.111 -1.194 -1.302 -1.375 -1.314 -1.294 -1.302 -1.404 -1.403 -1.401 -1.414 -1.398 -1.427 -1.449 -1.448 -1.386 -1.228 -1.187 -1.165 -1.15 -1.146 -1.16 -1.15 -1.116 -1.157 -1.125 -1.121 -1.091 -1.024 -1.001 -0.967 -0.977 -0.948 -0.978 -1.121 -1.166 -1.17 -1.121 -1.09 -1.075 -1.065 -1.135 -1.27 -1.321 -1.343 -1.237 -1.177 -1.094 -1.091 -0.95 -0.92 -0.922 -0.962 -1.069 -1.151 -1.167 -1.051 -0.994 -1.024 -0.966 -0.885 -0.876 -0.849 -0.844 -0.849 -0.877 -0.878 -0.843 -0.814 -0.858 -1.064 -1.048 -1.01 -1.024 -1.021 -1.059 -1.118 -1.01 -0.934 -0.942 -0.944 -0.862 -0.793 -0.723 -0.627 -0.578 -0.578 -0.64 -0.7 -0.678 -0.756 -0.819 -1.009 -1 -1.017 -1.039 -1.025 -1.004 -1.014 -1.097 -1.013 -0.928 -0.786 -0.679 -0.642 -0.667 -0.73 -0.734 -0.744 -0.758 -0.785 -0.703 -0.696 -0.677 -0.67 -0.791 -0.8 -0.81 -0.819 -0.829 -0.838 -0.847 -0.857 -0.866 -0.876 -0.885 -0.894 -0.904 -0.913 -0.922 -0.932 -0.941 -0.95 -0.96 -0.969 -0.979 -0.988 -0.997 -1.007 -1.016 -1.025 -1.035 -1.044 -1.053 -1.063 -1.061 -1.055 -1.05 -1.044 -1.039 -1.033 -1.023 -1.001 -0.979 -0.957 -0.934 -0.915 -0.783 -0.77 -0.748 -0.753 -0.76 -0.868 -0.877 -0.885 -0.893 -0.9 -0.908 -0.916 -0.924 -0.931 -0.939 -0.947 -0.954 -0.962 -0.969 -0.977 -0.985 -0.992 -1 -1.008 -1.015 -1.023 -1.031 -1.038 -1.046 -1.054 -1.061 -1.069 -1.078 -1.093 -1.108 -1.105 -1.055 -1.006 -0.956 -0.906 -0.86 -0.866 -0.872 -0.878 -0.884 -0.891 -0.895 -0.884 -0.873 -0.87 -0.874 -0.878 -0.882 -0.886 -0.89 -0.894 -0.898 -0.902 -0.906 -0.91 -0.914 -0.918 -0.922 -0.926 -0.93 -0.934 -0.938 -0.942 -0.946 -0.95 -0.954 -0.958 -0.962 -0.966 -0.97 -0.974 -0.978 -0.982 -0.986 -0.99 -0.994 -0.998 -1.002 -1.006 -1.01 -1.014 -1.018 -1.022 -1.026 -1.03 -1.034 -1.038 -1.042 -1.046 -1.05 -1.052 -1.051 -1.051 -1.051 -1.05 -1.05 -1.05 -1.049 -1.049 -1.048 -1.048 -1.073 -1.051 -1.026 -1.002 -0.977 -0.953 -0.921 -0.884 -0.847 -0.81 -0.773 -0.736 -0.712 -0.716 -0.719 -0.722 -0.725 -0.729 -0.732 -0.735 -0.739 -0.742 -0.745 -0.749 -0.752 -0.755 -0.759 -0.762 -0.765 -0.769 -0.772 -0.776 -0.789 -0.799 -0.806 -0.807 -0.807 -0.808 -0.808 -0.809 -0.809 -0.809 -0.81 -0.81 -0.819 -0.831 -0.842 -0.854 -0.865 -0.878 -0.899 -0.919 -0.94 -0.961 -0.982 -1.003
-1.203 -1.241 -1.085 -1.099 -1.153 -1.164 -1.13 -1.089 -1.025 -0.821 -0.79 -0.826 -0.864 -1.018 -1.062 -1.101 -1.051 -0.772 -0.655 -0.62 -0.765 -0.802 -0.897 -0.986 -0.981 -1.007 -0.995 -0.98 -1.101 -1.189 -1.108 -0.988 -0.958 -1.033 -1.337 -0.973 -0.908 -0.85 -0.972 -1.141 -1.156 -1.227 -1.167 -1.163 -1.065 -0.947 -0.981 -1.035 -0.946 -0.816 -0.965 -1.007 -1.18 -1.118 -1.483 -1.409 -1.245 -1.206 -1.175 -1.115 -1.006 -0.932 -1.047 -1.113 -1.144 -1.196 -1.224 -1.227 -1.237 -1.085 -1.242 -0.946 -0.879 -0.822 -0.859 -0.702 -0.631 -0.794 -0.925 -0.993 -0.982 -1.092 -1.072 -1.149 -1.08 -0.832 -0.701 -0.783 -0.818 -0.803 -0.878 -0.852 -0.706 -0.596 -0.687 -0.762 -0.815 -0.867 -0.897 -0.941 -0.88 -0.942 -0.991 -1.026 -1.106 -1.23 -1.168 -0.96 -0.748 -0.82 -1.007 -1.171 -1.24 -1.12 -1.087 -1.166 -1.457 -1.425 -1.31 -1.292 -1.301 -1.4 -1.398 -1.311 -1.363 -1.314 -1.34 -1.452 -1.611 -1.503 -1.263 -1.167 -1.097 -1.1 -1.109 -1.16 -1.297 -1.239 -1.17 -1.106 -1.077 -1.074 -1.074 -1.089 -1.096 -1.107 -1.128 -1.178 -1.232 -1.207 -1.193 -1.179 -1.113 -1.051 -1.047 -1.142 -1.128 -1.188 -1.114 -1.133 -1.143 -1.127 -1.116 -0.997 -0.915 -0.944 -1.005 -0.994 -1.114 -1.095 -1.076 -1.084 -1.056 -1 -0.937 -0.907 -0.909 -0.881 -0.866 -0.884 -0.889 -0.853 -0.892 -0.911 -1.026 -1.02 -1.021 -1.039 -1.11 -1.128 -1.102 -1.075 -0.967 -0.916 -0.9 -0.818 -0.783 -0.734 -0.666 -0.533 -0.55 -0.678 -0.678 -0.5 -0.757 -0.93 -1.221 -1.192 -1.069 -1.238 -1.184 -1.029 -1.003 -0.985 -0.995 -0.911 -0.719 -0.61 -0.588 -0.637 -0.737 -0.764 -0.79 -0.817 -0.844 -0.849 -0.823 -0.682 -0.775 -0.791 -0.812 -0.821 -0.831 -0.841 -0.85 -0.859 -0.869 -0.878 -0.887 -0.897 -0.906 -0.915 -0.925 -0.934 -0.944 -0.953 -0.962 -0.972 -0.981 -0.99 -1 -1.009 -1.018 -1.028 -1.037 -1.047 -1.056 -1.065 -1.064 -1.059 -1.053 -1.048 -1.042 -1.036 -1.031 -1.025 -1.015 -0.993 -0.97 -0.948 -0.926 -0.903 -0.781 -0.757 -0.754 -0.858 -0.868 -0.879 -0.889 -0.899 -0.906 -0.914 -0.922 -0.93 -0.937 -0.945 -0.953 -0.96 -0.968 -0.976 -0.983 -0.991 -0.999 -1.006 -1.014 -1.021 -1.029 -1.037 -1.044 -1.052 -1.06 -1.067 -1.075 -1.084 -1.099 -1.113 -1.1 -1.05 -1.001 -0.951 -0.901 -0.858 -0.864 -0.871 -0.877 -0.883 -0.889 -0.885 -0.874 -0.866 -0.87 -0.874 -0.878 -0.882 -0.886 -0.89 -0.894 -0.898 -0.902 -0.906 -0.91 -0.914 -0.919 -0.923 -0.927 -0.931 -0.935 -0.939 -0.943 -0.947 -0.951 -0.955 -0.959 -0.963 -0.967 -0.971 -0.975 -0.979 -0.983 -0.987 -0.991 -0.995 -0.999 -1.003 -1.007 -1.011 -1.015 -1.019 -1.023 -1.027 -1.031 -1.035 -1.039 -1.043 -1.047 -1.051 -1.052 -1.051 -1.051 -1.051 -1.05 -1.05 -1.05 -1.049 -1.049 -1.049 -1.048 -1.066 -1.041 -1.017 -0.992 -0.968 -0.943 -0.905 -0.868 -0.831 -0.794 -0.757 -0.72 -0.712 -0.716 -0.719 -0.722 -0.726 -0.729 -0.732 -0.736 -0.739 -0.742 -0.745 -0.749 -0.752 -0.755 -0.759 -0.762 -0.765 -0.769 -0.772 -0.777 -0.79 -0.8 -0.806 -0.806 -0.807 -0.807 -0.808 -0.808 -0.809 -0.809 -0.809 -0.811 -0.823 -0.834 -0.846 -0.857 -0.869 -0.887 -0.907 -0.928 -0.949 -0.97 -0.99 -1.011
-1.106 -1 -0.88 -0.988 -1.133 -1.228 -1.217 -1.103 -1.037 -0.849 -0.772 -0.845 -0.935 -1.093 -1.065 -1.052 -0.981 -0.853 -0.718 -0.651 -0.791 -0.805 -0.893 -0.973 -0.93 -0.963 -0.951 -0.945 -0.972 -1.193 -1.297 -1.158 -1.162 -1.148 -1.137 -0.905 -0.916 -0.898 -0.976 -0.998 -1.029 -1.12 -1.112 -1.097 -1.048 -0.924 -0.975 -1.057 -0.924 -0.936 -0.946 -0.934 -1.104 -1.118 -1.375 -1.322 -1.237 -1.219 -1.259 -1.276 -1.223 -1.219 -1.241 -1.252 -1.258 -1.309 -1.357 -1.306 -1.3 -1.381 -1.284 -1.029 -1.047 -0.967 -0.967 -0.79 -0.611 -0.866 -0.955 -1.018 -1.071 -1.103 -1.146 -1.086 -1.136 -0.987 -0.81 -0.872 -0.833 -0.798 -0.799 -0.812 -0.765 -0.69 -0.685 -0.681 -0.753 -0.747 -0.906 -0.98 -1.017 -1.012 -1.015 -1.023 -1.059 -1.09 -1.074 -0.943 -0.777 -0.877 -0.98 -1.042 -1.09 -0.996 -1.07 -1.165 -1.504 -1.477 -1.334 -1.319 -1.298 -1.379 -1.361 -1.343 -1.242 -1.288 -1.332 -1.402 -1.514 -1.382 -1.288 -1.15 -1.041 -0.999 -1.043 -1.12 -1.377 -1.296 -1.075 -1.086 -1.238 -1.102 -1.158 -1.162 -1.189 -1.211 -1.178 -1.318 -1.376 -1.241 -1.193 -1.197 -1.076 -1.05 -0.936 -0.964 -1.057 -1.051 -1.079 -1.12 -1.134 -1.13 -1.105 -1.075 -1.053 -1.014 -1.021 -1.038 -1.057 -1.015 -1.071 -1.169 -1.081 -1.033 -0.997 -0.975 -1.022 -1.048 -0.953 -0.936 -0.945 -0.92 -0.911 -0.909 -0.949 -0.981 -1.012 -1.052 -1.124 -1.136 -1.123 -1.117 -1.041 -0.97 -0.893 -0.865 -0.782 -0.724 -0.718 -0.529 -0.498 -0.444 -0.482 -0.515 -0.785 -0.842 -1.114 -1.137 -1.267 -1.246 -1.201 -1.025 -1.006 -0.994 -0.965 -0.901 -0.744 -0.64 -0.604 -0.659 -0.796 -0.823 -0.849 -0.876 -0.876 -0.85 -0.827 -0.803 -0.78 -0.719 -0.813 -0.833 -0.843 -0.852 -0.862 -0.871 -0.88 -0.89 -0.899 -0.909 -0.918 -0.927 -0.937 -0.946 -0.955 -0.965 -0.974 -0.983 -0.993 -1.002 -1.012 -1.021 -1.03 -1.04 -1.049 -1.058 -1.068 -1.068 -1.062 -1.057 -1.051 -1.046 -1.04 -1.034 -1.029 -1.023 -1.018 -1.006 -0.984 -0.962 -0.939 -0.917 -0.895 -0.769 -0.866 -0.858 -0.868 -0.878 -0.889 -0.899 -0.909 -0.919 -0.928 -0.936 -0.943 -0.951 -0.959 -0.966 -0.974 -0.982 -0.989 -0.997 -1.005 -1.012 -1.02 -1.028 -1.035 -1.043 -1.051 -1.058 -1.066 -1.073 -1.081 -1.089 -1.104 -1.119 -1.095 -1.046 -0.996 -0.946 -0.897 -0.857 -0.863 -0.869 -0.875 -0.881 -0.885 -0.874 -0.864 -0.867 -0.871 -0.875 -0.879 -0.883 -0.887 -0.891 -0.895 -0.899 -0.903 -0.907 -0.911 -0.915 -0.919 -0.923 -0.927 -0.931 -0.935 -0.939 -0.943 -0.947 -0.951 -0.955 -0.959 -0.963 -0.967 -0.971 -0.975 -0.979 -0.983 -0.987 -0.991 -0.995 -0.999 -1.003 -1.007 -1.011 -1.015 -1.019 -1.023 -1.027 -1.031 -1.035 -1.039 -1.043 -1.047 -1.051 -1.052 -1.052 -1.051 -1.051 -1.05 -1.05 -1.05 -1.049 -1.049 -1.049 -1.061 -1.056 -1.032 -1.007 -0.983 -0.959 -0.927 -0.89 -0.852 -0.815 -0.778 -0.741 -0.709 -0.712 -0.716 -0.719 -0.722 -0.726 -0.729 -0.732 -0.736 -0.739 -0.742 -0.746 -0.749 -0.752 -0.756 -0.759 -0.762 -0.765 -0.769 -0.772 -0.777 -0.79 -0.8 -0.806 -0.806 -0.807 -0.807 -0.807 -0.808 -0.808 -0.809 -0.809 -0.815 -0.827 -0.838 -0.85 -0.861 -0.875 -0.895 -0.916 -0.937 -0.958 -0.978 -0.999 -1.02
-1.031 -0.809 -0.772 -0.871 -1.099 -1.225 -1.22 -1.081 -0.955 -0.885 -0.831 -0.841 -1.036 -1.06 -1.048 -1.065 -1.033 -0.876 -0.862 -0.937 -1.025 -1.073 -0.884 -0.891 -0.994 -0.942 -0.927 -0.903 -0.944 -1.039 -1.223 -1.205 -1.329 -1.282 -1.07 -0.944 -0.91 -0.81 -0.872 -0.949 -1.043 -1.062 -0.937 -1.071 -1.049 -0.92 -0.727 -0.765 -0.877 -0.921 -0.941 -1.012 -1.234 -1.184 -1.222 -1.263 -1.252 -1.313 -1.305 -1.437 -1.384 -1.29 -1.358 -1.286 -1.294 -1.396 -1.419 -1.431 -1.399 -1.342 -1.309 -1.116 -1.094 -1.108 -1.353 -0.995 -0.907 -0.968 -1.064 -1.105 -1.08 -1.033 -1.217 -1.218 -1.153 -1.079 -0.999 -0.748 -0.782 -0.833 -0.825 -0.807 -0.828 -0.777 -0.709 -0.557 -0.674 -0.706 -0.966 -1.102 -1.159 -1.132 -1.031 -1.021 -1.018 -1.033 -1.054 -0.936 -0.856 -0.867 -0.955 -0.951 -0.961 -0.893 -1.08 -1.053 -1.197 -1.316 -1.319 -1.319 -1.274 -1.176 -1.171 -1.047 -1.182 -1.291 -1.305 -1.29 -1.221 -1.183 -1.294 -1.204 -1.021 -0.94 -0.976 -0.986 -1.144 -1.151 -1.04 -1.063 -1.223 -1.176 -1.168 -1.184 -1.291 -1.337 -1.299 -1.338 -1.353 -1.17 -1.122 -1.119 -1.063 -0.994 -0.817 -0.83 -0.923 -0.975 -1.002 -1.089 -1.145 -1.132 -1.144 -1.192 -1.244 -1.092 -1.023 -1.036 -1.048 -1.023 -1.055 -1.121 -1.084 -1.025 -1.005 -1.007 -1.028 -1.038 -1.014 -0.999 -1.002 -1.008 -0.993 -0.968 -0.95 -0.937 -0.934 -0.965 -1.085 -1.199 -1.157 -1.112 -1.06 -1.053 -1.035 -1.007 -0.793 -0.716 -0.653 -0.59 -0.49 -0.359 -0.314 -0.493 -0.777 -0.949 -1.055 -1.063 -1.195 -1.173 -1.152 -1.026 -1.01 -1.003 -0.97 -0.968 -0.908 -0.847 -0.804 -0.828 -0.855 -0.882 -0.908 -0.903 -0.879 -0.855 -0.831 -0.808 -0.784 -0.727 -0.713 -0.834 -0.855 -0.864 -0.874 -0.883 -0.892 -0.902 -0.911 -0.92 -0.93 -0.939 -0.948 -0.958 -0.967 -0.977 -0.986 -0.995 -1.005 -1.014 -1.023 -1.033 -1.042 -1.052 -1.061 -1.07 -1.071 -1.066 -1.06 -1.055 -1.049 -1.044 -1.038 -1.032 -1.027 -1.021 -1.016 -1.01 -0.997 -0.975 -0.953 -0.931 -0.908 -0.883 -0.872 -0.861 -0.868 -0.878 -0.889 -0.899 -0.909 -0.919 -0.929 -0.939 -0.95 -0.957 -0.965 -0.973 -0.98 -0.988 -0.995 -1.003 -1.011 -1.018 -1.026 -1.034 -1.041 -1.049 -1.057 -1.064 -1.072 -1.08 -1.087 -1.095 -1.109 -1.124 -1.091 -1.041 -0.991 -0.942 -0.892 -0.855 -0.861 -0.867 -0.874 -0.88 -0.875 -0.864 -0.863 -0.867 -0.871 -0.875 -0.879 -0.883 -0.887 -0.891 -0.895 -0.899 -0.903 -0.907 -0.911 -0.915 -0.919 -0.923 -0.927 -0.931 -0.935 -0.939 -0.943 -0.947 -0.951 -0.955 -0.959 -0.963 -0.967 -0.971 -0.975 -0.979 -0.983 -0.987 -0.991 -0.995 -0.999 -1.003 -1.007 -1.011 -1.015 -1.019 -1.023 -1.027 -1.031 -1.035 -1.039 -1.043 -1.047 -1.051 -1.052 -1.052 -1.051 -1.051 -1.051 -1.05 -1.05 -1.049 -1.049 -1.049 -1.071 -1.047 -1.023 -0.998 -0.974 -0.948 -0.911 -0.874 -0.837 -0.799 -0.762 -0.725 -0.709 -0.713 -0.716 -0.719 -0.722 -0.726 -0.729 -0.732 -0.736 -0.739 -0.742 -0.746 -0.749 -0.752 -0.756 -0.759 -0.762 -0.766 -0.769 -0.772 -0.778 -0.79 -0.801 -0.805 -0.806 -0.806 -0.807 -0.807 -0.807 -0.808 -0.808 -0.809 -0.819 -0.83 -0.842 -0.853 -0.865 -0.883 -0.904 -0.925 -0.946 -0.966 -0.987 -1.008 -1.029
-0.928 -0.819 -0.845 -0.977 -1.096 -1.149 -1.23 -1.231 -0.92 -0.832 -0.769 -0.91 -0.975 -0.932 -0.997 -1.037 -1.018 -0.915 -0.905 -0.976 -0.953 -0.852 -0.812 -0.847 -0.986 -0.974 -0.949 -0.921 -0.918 -1.04 -1.164 -1.226 -1.274 -1.229 -1.134 -0.902 -0.791 -0.788 -0.845 -0.866 -0.875 -0.919 -0.931 -0.911 -0.959 -0.952 -0.75 -0.767 -0.86 -0.865 -0.985 -1.075 -1.192 -1.145 -1.273 -1.275 -1.281 -1.3 -1.271 -1.423 -1.327 -1.392 -1.514 -1.469 -1.325 -1.373 -1.398 -1.459 -1.381 -1.276 -1.246 -1.125 -1.094 -1.111 -1.272 -1.099 -1.011 -1.055 -1.155 -1.256 -1.261 -1.135 -1.187 -1.183 -1.148 -1.134 -0.896 -0.743 -0.753 -0.737 -0.792 -0.825 -0.793 -0.76 -0.583 -0.577 -0.544 -0.555 -0.86 -0.967 -1.069 -1.057 -0.958 -1.047 -0.911 -0.857 -0.804 -0.852 -0.79 -0.793 -0.836 -0.828 -0.767 -0.712 -0.815 -0.948 -1.106 -1.28 -1.291 -1.302 -1.334 -1.206 -0.989 -0.902 -1.066 -1.24 -1.245 -1.258 -1.172 -1.107 -1.582 -1.031 -1.038 -0.917 -0.962 -0.944 -1.085 -1.094 -1.064 -1.083 -1.215 -1.175 -1.204 -1.223 -1.291 -1.32 -1.316 -1.316 -1.298 -1.176 -1.137 -1.081 -1.066 -1 -0.859 -0.872 -0.921 -0.961 -1.016 -1.326 -1.141 -1.372 -1.149 -1.159 -1.173 -1.119 -1.061 -1.146 -1.144 -1.057 -1.067 -1.06 -1.071 -1.018 -1 -1.03 -1.045 -1.073 -1.233 -1.066 -1.037 -1.045 -1.044 -1.041 -0.967 -0.911 -0.885 -0.891 -0.968 -1.073 -0.968 -1.049 -1.05 -1.074 -1.092 -1.066 -0.886 -0.954 -0.948 -0.609 -0.44 -0.244 -0.195 -0.422 -0.78 -0.971 -1.029 -1.009 -1.122 -1.118 -1.129 -1.141 -1.003 -0.987 -1.069 -1.035 -0.975 -0.915 -0.865 -0.887 -0.914 -0.941 -0.931 -0.907 -0.883 -0.86 -0.836 -0.813 -0.789 -0.736 -0.668 -0.735 -0.856 -0.876 -0.885 -0.895 -0.904 -0.913 -0.923 -0.932 -0.942 -0.951 -0.96 -0.97 -0.979 -0.988 -0.998 -1.007 -1.017 -1.026 -1.035 -1.045 -1.054 -1.063 -1.073 -1.075 -1.069 -1.064 -1.058 -1.053 -1.047 -1.042 -1.036 -1.03 -1.025 -1.019 -1.014 -1.008 -1.003 -0.989 -0.966 -0.944 -0.922 -0.9 -0.877 -0.867 -0.868 -0.878 -0.888 -0.899 -0.909 -0.919 -0.929 -0.939 -0.95 -0.96 -0.97 -0.979 -0.986 -0.994 -1.002 -1.009 -1.017 -1.025 -1.032 -1.04 -1.048 -1.055 -1.063 -1.07 -1.078 -1.086 -1.093 -1.101 -1.114 -1.129 -1.086 -1.036 -0.986 -0.937 -0.887 -0.854 -0.86 -0.866 -0.872 -0.875 -0.865 -0.859 -0.863 -0.867 -0.871 -0.875 -0.879 -0.883 -0.887 -0.891 -0.895 -0.899 -0.903 -0.907 -0.911 -0.915 -0.919 -0.923 -0.927 -0.931 -0.935 -0.939 -0.943 -0.947 -0.951 -0.955 -0.959 -0.963 -0.967 -0.971 -0.975 -0.979 -0.983 -0.987 -0.991 -0.995 -0.999 -1.003 -1.007 -1.011 -1.015 -1.019 -1.023 -1.027 -1.031 -1.035 -1.039 -1.043 -1.047 -1.051 -1.052 -1.052 -1.051 -1.051 -1.051 -1.05 -1.05 -1.05 -1.049 -1.049 -1.062 -1.038 -1.013 -0.989 -0.964 -0.932 -0.895 -0.858 -0.821 -0.784 -0.746 -0.709 -0.709 -0.713 -0.716 -0.719 -0.723 -0.726 -0.729 -0.733 -0.736 -0.739 -0.742 -0.746 -0.749 -0.752 -0.756 -0.759 -0.762 -0.766 -0.769 -0.772 -0.778 -0.791 -0.801 -0.805 -0.805 -0.806 -0.806 -0.807 -0.807 -0.807 -0.808 -0.811 -0.822 -0.834 -0.846 -0.857 -0.871 -0.892 -0.913 -0.934 -0.954 -0.975 -0.996 -1.016 -1.037
-0.915 -0.898 -1.007 -1.258 -1.227 -1.18 -1.28 -1.281 -1.078 -0.767 -0.839 -0.922 -1.009 -0.996 -0.999 -0.944 -0.937 -0.953 -0.948 -0.952 -0.896 -0.863 -0.822 -0.847 -0.886 -0.965 -1.058 -1.091 -0.975 -1.063 -1.18 -1.237 -1.202 -1.099 -1.016 -0.774 -0.7 -0.715 -0.793 -0.842 -0.854 -0.937 -0.906 -0.799 -0.852 -1.004 -1.017 -0.795 -0.798 -0.835 -0.92 -1.015 -1.138 -1.151 -1.208 -1.217 -1.317 -1.322 -1.341 -1.375 -1.311 -1.234 -1.43 -1.409 -1.444 -1.45 -1.359 -1.346 -1.276 -1.241 -1.207 -1.073 -0.928 -1.503 -1.236 -1.04 -0.992 -1.19 -1.184 -1.249 -1.296 -1.179 -1.098 -1.156 -1.172 -0.97 -0.699 -0.65 -0.772 -0.722 -0.718 -0.734 -0.758 -0.725 -0.593 -0.548 -0.561 -0.56 -0.606 -0.965 -0.952 -0.931 -0.919 -0.881 -0.869 -0.831 -0.813 -0.827 -0.768 -0.78 -0.803 -0.766 -0.748 -0.675 -0.749 -1.124 -1.281 -1.289 -1.284 -1.267 -1.288 -1.084 -0.961 -0.749 -0.911 -1.114 -1.25 -1.188 -1.161 -1.16 -1.105 -1.121 -1.184 -1.182 -0.988 -1.122 -1.237 -1.091 -1.144 -1.183 -1.11 -1.178 -1.206 -1.214 -1.273 -1.302 -1.316 -1.349 -1.336 -1.322 -1.242 -1.07 -1.04 -0.915 -0.861 -0.905 -0.877 -0.993 -1.218 -1.101 -1.178 -1.175 -1.102 -0.979 -0.942 -1.046 -1.144 -1.142 -1.051 -1.067 -1.04 -1.031 -1.083 -1.073 -1.044 -1.071 -1.11 -1.115 -1.108 -1.112 -1.159 -1.146 -1.09 -1.047 -0.995 -0.867 -0.826 -0.754 -0.796 -0.93 -0.955 -1.012 -1.001 -1.019 -1.029 -0.935 -0.859 -0.956 -0.942 -0.69 -0.388 -0.182 -0.273 -0.498 -0.84 -0.968 -0.952 -1.137 -1.149 -1.161 -1.173 -1.18 -1.15 -1.119 -1.089 -1.059 -1.029 -0.982 -0.882 -0.867 -0.872 -0.859 -0.935 -0.912 -0.888 -0.865 -0.841 -0.817 -0.794 -0.744 -0.676 -0.635 -0.757 -0.878 -0.897 -0.907 -0.916 -0.925 -0.935 -0.944 -0.953 -0.963 -0.972 -0.982 -0.991 -1 -1.01 -1.019 -1.028 -1.038 -1.047 -1.056 -1.066 -1.075 -1.078 -1.073 -1.067 -1.062 -1.056 -1.051 -1.045 -1.039 -1.034 -1.028 -1.023 -1.017 -1.012 -1.006 -1 -0.995 -0.98 -0.958 -0.936 -0.913 -0.886 -0.873 -0.868 -0.878 -0.888 -0.899 -0.909 -0.919 -0.929 -0.939 -0.949 -0.96 -0.97 -0.98 -0.99 -1 -1.008 -1.015 -1.023 -1.031 -1.038 -1.046 -1.054 -1.061 -1.069 -1.077 -1.084 -1.092 -1.1 -1.107 -1.12 -1.131 -1.081 -1.031 -0.982 -0.932 -0.882 -0.852 -0.858 -0.864 -0.87 -0.865 -0.856 -0.86 -0.864 -0.868 -0.872 -0.876 -0.88 -0.883 -0.887 -0.891 -0.895 -0.899 -0.903 -0.907 -0.911 -0.915 -0.92 -0.924 -0.928 -0.932 -0.936 -0.94 -0.944 -0.948 -0.952 -0.956 -0.96 -0.964 -0.968 -0.972 -0.976 -0.98 -0.984 -0.988 -0.992 -0.996 -1 -1.004 -1.008 -1.012 -1.016 -1.02 -1.024 -1.028 -1.032 -1.036 -1.04 -1.044 -1.048 -1.052 -1.052 -1.052 -1.051 -1.051 -1.051 -1.05 -1.05 -1.05 -1.049 -1.063 -1.053 -1.028 -1.004 -0.979 -0.953 -0.916 -0.879 -0.842 -0.805 -0.768 -0.731 -0.706 -0.709 -0.713 -0.716 -0.719 -0.723 -0.726 -0.729 -0.733 -0.736 -0.739 -0.743 -0.746 -0.749 -0.753 -0.756 -0.759 -0.762 -0.766 -0.769 -0.772 -0.778 -0.791 -0.801 -0.805 -0.805 -0.805 -0.806 -0.806 -0.807 -0.807 -0.807 -0.815 -0.826 -0.838 -0.849 -0.861 -0.88 -0.901 -0.922 -0.942 -0.963 -0.984 -1.004 -1.025 -1.046
-0.962 -0.917 -1.018 -1.208 -1.153 -1.225 -1.3 -1.126 -1.089 -1 -1.026 -0.906 -1.019 -0.923 -1.044 -1.065 -0.978 -0.891 -0.829 -0.822 -0.839 -0.869 -0.806 -0.766 -0.889 -0.952 -1.117 -1.197 -1.099 -1.241 -1.126 -1.149 -1.047 -1.049 -0.994 -0.748 -0.673 -0.534 -0.842 -0.816 -0.822 -0.841 -0.849 -0.777 -0.929 -0.984 -0.99 -0.801 -0.757 -0.769 -0.887 -0.966 -1.123 -1.152 -1.153 -1.178 -1.198 -1.281 -1.293 -1.085 -1.139 -1.073 -1.128 -1.252 -1.358 -1.364 -1.371 -1.277 -1.199 -1.135 -1.078 -1.051 -1.028 -1.207 -1.227 -1.099 -1.049 -1.17 -1.12 -1.057 -1.201 -1.131 -1.054 -1.176 -1.189 -0.937 -0.634 -0.563 -0.664 -0.703 -0.72 -0.721 -0.744 -0.557 -0.625 -0.586 -0.571 -0.582 -0.595 -0.738 -0.847 -0.897 -0.883 -0.874 -0.87 -0.857 -0.861 -0.88 -0.87 -0.82 -0.751 -0.754 -0.882 -0.973 -0.866 -1.072 -1.25 -1.236 -1.263 -1.223 -1.162 -1.05 -0.922 -0.856 -0.98 -1.138 -1.242 -1.203 -1.14 -1.146 -1.31 -1.386 -1.224 -1.171 -1.122 -1.118 -1.111 -0.931 -1.021 -1.072 -1.138 -1.169 -1.194 -1.226 -1.278 -1.303 -1.316 -1.363 -1.332 -1.302 -1.222 -1.153 -0.992 -0.937 -0.91 -1.042 -1.091 -1.07 -1.093 -1.161 -1.234 -1.204 -1.123 -1.049 -0.984 -1.105 -1.17 -1.182 -1.118 -1.062 -1.076 -1.058 -1.093 -1.096 -1.18 -1.096 -1.121 -1.127 -1.107 -1.142 -1.184 -1.198 -1.239 -1.139 -0.932 -0.856 -0.871 -0.636 -0.695 -0.88 -0.915 -1.003 -0.993 -1 -0.966 -0.97 -0.951 -0.909 -0.859 -0.723 -0.467 -0.33 -0.388 -0.515 -0.756 -0.894 -0.911 -1.181 -1.192 -1.204 -1.216 -1.2 -1.17 -1.139 -1.109 -1.079 -1.049 -1.019 -0.889 -0.895 -0.901 -0.887 -0.94 -0.917 -0.893 -0.869 -0.846 -0.822 -0.799 -0.752 -0.684 -0.616 -0.657 -0.778 -0.899 -0.918 -0.928 -0.937 -0.947 -0.956 -0.965 -0.975 -0.984 -0.993 -1.003 -1.012 -1.021 -1.031 -1.04 -1.05 -1.059 -1.068 -1.078 -1.082 -1.076 -1.071 -1.065 -1.06 -1.054 -1.049 -1.043 -1.037 -1.032 -1.026 -1.021 -1.015 -1.01 -1.004 -0.998 -0.993 -0.987 -0.971 -0.949 -0.927 -0.903 -0.879 -0.868 -0.878 -0.888 -0.898 -0.909 -0.919 -0.929 -0.939 -0.949 -0.96 -0.97 -0.98 -0.99 -1 -1.01 -1.02 -1.029 -1.037 -1.044 -1.052 -1.06 -1.067 -1.075 -1.083 -1.09 -1.098 -1.106 -1.113 -1.125 -1.126 -1.076 -1.027 -0.977 -0.927 -0.877 -0.85 -0.857 -0.863 -0.866 -0.855 -0.856 -0.86 -0.864 -0.868 -0.872 -0.876 -0.88 -0.884 -0.888 -0.892 -0.896 -0.9 -0.904 -0.908 -0.912 -0.916 -0.92 -0.924 -0.928 -0.932 -0.936 -0.94 -0.944 -0.948 -0.952 -0.956 -0.96 -0.964 -0.968 -0.972 -0.976 -0.98 -0.984 -0.988 -0.992 -0.996 -1 -1.004 -1.008 -1.012 -1.016 -1.02 -1.024 -1.028 -1.032 -1.036 -1.04 -1.044 -1.048 -1.052 -1.052 -1.052 -1.052 -1.051 -1.051 -1.05 -1.05 -1.05 -1.049 -1.068 -1.043 -1.019 -0.994 -0.97 -0.937 -0.9 -0.863 -0.826 -0.789 -0.752 -0.715 -0.706 -0.71 -0.713 -0.716 -0.72 -0.723 -0.726 -0.729 -0.733 -0.736 -0.739 -0.743 -0.746 -0.749 -0.753 -0.756 -0.759 -0.763 -0.766 -0.769 -0.773 -0.779 -0.792 -0.802 -0.804 -0.805 -0.805 -0.805 -0.806 -0.806 -0.807 -0.807 -0.818 -0.83 -0.841 -0.853 -0.868 -0.889 -0.91 -0.93 -0.951 -0.972 -0.992 -1.013 -1.034 -1.055
-1.037 -1.149 -1.059 -1.056 -1.06 -1.169 -1.112 -1.173 -1.265 -1.231 -1.102 -1.01 -0.96 -0.935 -1.074 -1.109 -0.921 -0.829 -0.789 -0.781 -0.82 -0.797 -0.786 -0.759 -0.824 -0.938 -1.009 -1.068 -1.164 -1.186 -1.107 -1.07 -1.03 -1.028 -0.967 -0.791 -0.519 -0.48 -0.771 -0.868 -0.809 -0.853 -0.839 -0.896 -1.021 -0.91 -0.846 -0.642 -0.679 -0.767 -0.839 -0.917 -1.145 -1.136 -1.166 -1.193 -1.204 -1.193 -1.145 -1.112 -1.101 -1.084 -1.109 -1.256 -1.329 -1.319 -1.325 -1.112 -1.118 -1.045 -1.031 -1.002 -1.043 -1.12 -1.161 -1.194 -1.243 -1.283 -1.038 -0.961 -1.138 -1.271 -1.128 -1.149 -1.09 -0.83 -0.746 -0.687 -0.694 -0.709 -0.718 -0.682 -0.747 -0.754 -0.581 -0.565 -0.536 -0.565 -0.683 -0.798 -0.839 -0.873 -0.859 -0.844 -0.879 -0.868 -0.9 -0.963 -0.983 -0.859 -0.75 -0.739 -0.769 -0.817 -0.85 -1.175 -1.275 -1.25 -1.246 -1.201 -1.158 -1.009 -0.981 -1.021 -1.083 -1.178 -1.303 -1.277 -1.171 -1.124 -1.212 -1.318 -1.169 -1.128 -1.125 -1.05 -0.933 -0.878 -1.021 -1.086 -1.142 -1.165 -1.184 -1.217 -1.278 -1.283 -1.27 -1.277 -1.226 -1.161 -1.126 -1.052 -1.094 -0.969 -0.995 -1.087 -1.105 -1.09 -1.122 -1.09 -1.08 -1.108 -1.259 -1.127 -1.072 -1.266 -1.222 -1.2 -1.132 -1.055 -1.157 -1.171 -1.102 -1.122 -1.099 -1.104 -1.098 -1.111 -1.055 -1.054 -1.141 -1.202 -1.275 -1.152 -0.813 -0.816 -0.833 -0.772 -0.784 -0.9 -0.927 -1.023 -1.013 -1.025 -0.959 -0.991 -1.05 -1 -0.83 -0.838 -0.796 -0.92 -0.924 -0.687 -0.788 -1.123 -1.212 -1.224 -1.236 -1.248 -1.25 -1.22 -1.19 -1.159 -1.129 -1.099 -1.069 -1.043 -0.902 -0.899 -0.898 -0.89 -0.945 -0.921 -0.898 -0.874 -0.851 -0.827 -0.804 -0.761 -0.693 -0.625 -0.557 -0.678 -0.8 -0.921 -0.94 -0.949 -0.958 -0.968 -0.977 -0.986 -0.996 -1.005 -1.015 -1.024 -1.033 -1.043 -1.052 -1.061 -1.071 -1.08 -1.086 -1.08 -1.074 -1.069 -1.063 -1.058 -1.052 -1.047 -1.041 -1.035 -1.03 -1.024 -1.019 -1.013 -1.008 -1.002 -0.996 -0.991 -0.985 -0.98 -0.963 -0.94 -0.918 -0.888 -0.874 -0.878 -0.888 -0.898 -0.908 -0.919 -0.929 -0.939 -0.949 -0.959 -0.97 -0.98 -0.99 -1 -1.01 -1.02 -1.03 -1.04 -1.051 -1.058 -1.066 -1.074 -1.081 -1.089 -1.096 -1.104 -1.112 -1.119 -1.13 -1.121 -1.071 -1.022 -0.972 -0.922 -0.873 -0.849 -0.855 -0.861 -0.855 -0.852 -0.856 -0.86 -0.864 -0.868 -0.872 -0.876 -0.88 -0.884 -0.888 -0.892 -0.896 -0.9 -0.904 -0.908 -0.912 -0.916 -0.92 -0.924 -0.928 -0.932 -0.936 -0.94 -0.944 -0.948 -0.952 -0.956 -0.96 -0.964 -0.968 -0.972 -0.976 -0.98 -0.984 -0.988 -0.992 -0.996 -1 -1.004 -1.008 -1.012 -1.016 -1.02 -1.024 -1.028 -1.032 -1.036 -1.04 -1.044 -1.048 -1.052 -1.052 -1.052 -1.052 -1.051 -1.051 -1.051 -1.05 -1.05 -1.051 -1.058 -1.034 -1.01 -0.985 -0.959 -0.921 -0.884 -0.847 -0.81 -0.773 -0.736 -0.703 -0.706 -0.71 -0.713 -0.716 -0.72 -0.723 -0.726 -0.73 -0.733 -0.736 -0.74 -0.743 -0.746 -0.749 -0.753 -0.756 -0.759 -0.763 -0.766 -0.769 -0.773 -0.779 -0.792 -0.802 -0.804 -0.804 -0.805 -0.805 -0.805 -0.806 -0.806 -0.811 -0.822 -0.834 -0.845 -0.857 -0.877 -0.898 -0.918 -0.939 -0.96 -0.98 -1.001 -1.022 -1.042 -1.063
-1.113 -1.083 -1.053 -1.106 -0.945 -1.015 -1.18 -1.164 -1.258 -1.281 -1.285 -1.157 -1.231 -1.056 -1.06 -1.039 -0.933 -0.854 -0.75 -0.797 -0.827 -0.744 -0.747 -0.779 -0.809 -0.983 -0.923 -1.008 -1.139 -1.169 -1.182 -1.177 -1.071 -1.001 -0.957 -0.866 -0.675 -0.682 -0.881 -1.084 -1.071 -0.998 -0.949 -0.891 -0.898 -0.869 -0.858 -0.732 -0.725 -0.798 -0.834 -0.769 -0.925 -1.129 -1.151 -1.186 -1.194 -1.163 -1.144 -1.102 -1.089 -1.069 -1.124 -1.223 -1.224 -1.2 -1.18 -1.216 -1.052 -1.031 -1.032 -1.013 -1.125 -1.202 -1.161 -1.157 -1.315 -1.376 -1.191 -1.147 -1.237 -1.289 -1.266 -1.212 -1.024 -0.801 -0.749 -0.753 -0.761 -0.738 -0.719 -0.735 -0.92 -0.864 -0.565 -0.301 -0.428 -0.599 -0.67 -0.809 -0.812 -0.821 -0.839 -0.843 -0.853 -0.846 -0.914 -0.948 -0.953 -0.855 -0.754 -0.662 -0.622 -0.616 -0.874 -1.128 -1.199 -1.223 -1.246 -1.169 -1.129 -1.036 -0.997 -1.022 -1.094 -1.183 -1.261 -1.239 -1.123 -1.015 -1.081 -1.18 -1.186 -1.148 -1.151 -1.08 -0.987 -0.981 -1.028 -1.08 -1.088 -1.138 -1.191 -1.2 -1.225 -1.292 -1.243 -1.147 -1.018 -1.129 -1.103 -1.082 -1.095 -0.983 -0.951 -0.949 -1.035 -1.071 -1.095 -1.034 -1.022 -1.052 -1.115 -1.289 -1.152 -1.308 -1.29 -1.27 -1.209 -1.144 -1.189 -1.174 -1.168 -1.129 -1.136 -1.111 -1.135 -1.077 -1.048 -1.06 -1.13 -1.282 -1.238 -1.062 -0.843 -0.74 -0.788 -0.787 -0.859 -0.957 -1.025 -1.096 -1.021 -1.107 -1.025 -1.083 -1.274 -1.154 -0.962 -0.99 -1.014 -1.187 -1.314 -1.056 -0.98 -1.093 -1.256 -1.267 -1.279 -1.291 -1.27 -1.24 -1.21 -1.18 -1.149 -1.121 -1.097 -1.077 -1.08 -1.093 -1.041 -0.989 -0.95 -0.926 -0.903 -0.879 -0.856 -0.832 -0.809 -0.77 -0.702 -0.634 -0.566 -0.579 -0.7 -0.821 -0.942 -0.961 -0.97 -0.98 -0.989 -0.999 -1.008 -1.017 -1.027 -1.036 -1.045 -1.055 -1.064 -1.073 -1.083 -1.089 -1.084 -1.078 -1.073 -1.067 -1.061 -1.056 -1.05 -1.045 -1.039 -1.034 -1.028 -1.022 -1.017 -1.011 -1.006 -1 -0.995 -0.989 -0.983 -0.978 -0.972 -0.954 -0.932 -0.905 -0.88 -0.878 -0.888 -0.898 -0.909 -0.919 -0.929 -0.939 -0.949 -0.96 -0.97 -0.98 -0.99 -1 -1.01 -1.02 -1.03 -1.041 -1.051 -1.061 -1.071 -1.08 -1.088 -1.095 -1.103 -1.11 -1.118 -1.126 -1.136 -1.116 -1.067 -1.017 -0.967 -0.918 -0.868 -0.847 -0.854 -0.856 -0.849 -0.853 -0.857 -0.86 -0.864 -0.868 -0.872 -0.876 -0.88 -0.884 -0.888 -0.892 -0.896 -0.9 -0.904 -0.908 -0.912 -0.916 -0.921 -0.925 -0.929 -0.933 -0.937 -0.941 -0.945 -0.949 -0.953 -0.957 -0.961 -0.965 -0.969 -0.973 -0.977 -0.981 -0.985 -0.989 -0.993 -0.997 -1.001 -1.005 -1.009 -1.013 -1.017 -1.021 -1.025 -1.029 -1.033 -1.037 -1.041 -1.045 -1.049 -1.053 -1.053 -1.052 -1.052 -1.052 -1.051 -1.051 -1.05 -1.05 -1.065 -1.049 -1.025 -1 -0.976 -0.943 -0.906 -0.869 -0.832 -0.795 -0.757 -0.72 -0.703 -0.707 -0.71 -0.713 -0.717 -0.72 -0.723 -0.727 -0.73 -0.733 -0.737 -0.74 -0.743 -0.746 -0.75 -0.753 -0.756 -0.76 -0.763 -0.766 -0.77 -0.773 -0.78 -0.793 -0.803 -0.804 -0.804 -0.804 -0.805 -0.805 -0.806 -0.806 -0.815 -0.826 -0.838 -0.849 -0.865 -0.886 -0.906 -0.927 -0.948 -0.968 -0.989 -1.01 -1.031 -1.051 -1.072
-1.22 -1.058 -0.985 -0.944 -0.88 -0.895 -1.007 -1.06 -1.229 -1.35 -1.294 -1.258 -1.188 -1.067 -1.067 -1.032 -0.935 -0.853 -0.922 -0.831 -0.805 -0.767 -0.764 -0.87 -0.827 -0.847 -0.871 -0.875 -0.981 -1.062 -1.208 -1.246 -1.259 -1.069 -1.016 -0.958 -0.901 -1.165 -1.062 -1.16 -1.135 -1.144 -0.878 -0.84 -0.832 -0.823 -0.93 -0.959 -0.79 -0.677 -0.713 -0.751 -0.786 -0.992 -1.166 -1.24 -1.18 -1.164 -1.154 -1.094 -1.089 -1.073 -1.181 -1.25 -1.215 -1.234 -1.208 -1.121 -1.033 -1.003 -1.037 -1.057 -1.114 -1.156 -1.066 -1.055 -1.157 -1.252 -1.246 -1.245 -1.344 -1.302 -1.275 -1.235 -1.049 -0.888 -0.776 -0.767 -0.781 -0.756 -0.766 -0.827 -0.885 -0.823 -0.517 -0.215 -0.331 -0.69 -0.677 -0.664 -0.777 -0.797 -0.936 -0.873 -0.898 -0.862 -0.937 -1.007 -0.895 -0.881 -0.68 -0.533 -0.479 -0.595 -0.953 -1.082 -1.124 -1.147 -1.292 -1.242 -1.155 -1.015 -0.981 -0.996 -1.1 -1.109 -1.184 -1.179 -1.132 -1.053 -1.122 -1.231 -1.263 -1.264 -1.178 -1.048 -0.996 -0.982 -0.964 -0.997 -1.154 -1.093 -1.143 -1.14 -1.199 -1.308 -1.22 -0.913 -0.994 -1.092 -1.089 -1.084 -1.095 -0.923 -0.931 -0.937 -0.993 -1.143 -1.056 -1.038 -1.11 -1.13 -1.152 -1.162 -1.256 -1.236 -1.226 -1.278 -1.232 -1.324 -1.201 -1.246 -1.209 -1.117 -1.132 -1.11 -1.055 -1.005 -1.028 -1.02 -1.007 -1.326 -1.275 -1.045 -0.882 -0.673 -0.702 -0.825 -1.039 -1.091 -1.171 -1.254 -1.187 -1.127 -1.098 -1.176 -1.346 -1.269 -1.187 -1.194 -1.116 -1.213 -1.274 -1.151 -1.072 -1.102 -1.297 -1.311 -1.323 -1.32 -1.29 -1.26 -1.23 -1.201 -1.172 -1.151 -1.131 -1.112 -1.126 -1.128 -1.076 -1.024 -0.972 -0.931 -0.908 -0.884 -0.86 -0.837 -0.813 -0.778 -0.71 -0.642 -0.574 -0.506 -0.6 -0.722 -0.843 -0.964 -0.982 -0.992 -1.001 -1.01 -1.02 -1.029 -1.038 -1.048 -1.057 -1.067 -1.076 -1.085 -1.093 -1.087 -1.082 -1.076 -1.071 -1.065 -1.059 -1.054 -1.048 -1.043 -1.037 -1.032 -1.026 -1.02 -1.015 -1.009 -1.004 -0.998 -0.992 -0.987 -0.981 -0.976 -0.97 -0.965 -0.946 -0.922 -0.89 -0.878 -0.888 -0.898 -0.909 -0.919 -0.929 -0.939 -0.949 -0.959 -0.97 -0.98 -0.99 -1 -1.01 -1.02 -1.03 -1.041 -1.051 -1.061 -1.071 -1.081 -1.091 -1.101 -1.109 -1.117 -1.124 -1.132 -1.141 -1.112 -1.062 -1.012 -0.963 -0.913 -0.863 -0.846 -0.852 -0.846 -0.849 -0.853 -0.857 -0.861 -0.865 -0.869 -0.873 -0.877 -0.881 -0.885 -0.889 -0.893 -0.897 -0.901 -0.905 -0.909 -0.913 -0.917 -0.921 -0.925 -0.929 -0.933 -0.937 -0.941 -0.945 -0.949 -0.953 -0.957 -0.961 -0.965 -0.969 -0.973 -0.977 -0.981 -0.985 -0.989 -0.993 -0.997 -1.001 -1.005 -1.009 -1.013 -1.017 -1.021 -1.025 -1.029 -1.033 -1.037 -1.041 -1.045 -1.049 -1.053 -1.053 -1.052 -1.052 -1.052 -1.051 -1.051 -1.051 -1.05 -1.064 -1.04 -1.015 -0.991 -0.964 -0.927 -0.89 -0.853 -0.816 -0.779 -0.742 -0.704 -0.703 -0.707 -0.71 -0.713 -0.717 -0.72 -0.723 -0.727 -0.73 -0.733 -0.737 -0.74 -0.743 -0.747 -0.75 -0.753 -0.757 -0.76 -0.763 -0.766 -0.77 -0.773 -0.781 -0.793 -0.803 -0.803 -0.804 -0.804 -0.804 -0.805 -0.805 -0.807 -0.818 -0.83 -0.841 -0.853 -0.874 -0.894 -0.915 -0.936 -0.956 -0.977 -0.998 -1.019 -1.039 -1.06 -1.081
-1.14 -0.954 -0.934 -0.914 -0.845 -0.971 -0.948 -0.793 -1.175 -1.416 -1.357 -1.227 -1.218 -1.159 -1.057 -0.973 -0.939 -0.936 -1.008 -0.939 -0.813 -0.807 -0.786 -0.804 -0.818 -0.844 -0.85 -0.873 -0.961 -1.016 -1.213 -1.431 -1.357 -1.223 -1.235 -1.063 -0.819 -1.018 -1.125 -1.139 -1.143 -1.157 -0.771 -0.769 -0.75 -0.729 -0.848 -0.9 -0.748 -0.666 -0.673 -0.738 -0.734 -0.9 -1.196 -1.198 -1.164 -1.121 -1.137 -1.073 -1.116 -1.079 -1.122 -1.166 -1.191 -1.25 -1.227 -1.191 -1.03 -0.998 -1.03 -1.058 -1.415 -1.063 -1.02 -1.035 -1.151 -1.165 -1.148 -1.284 -1.356 -1.329 -1.272 -1.28 -1.14 -1.04 -0.946 -0.807 -0.787 -0.84 -0.796 -0.808 -0.796 -0.807 -0.634 -0.433 -0.448 -0.632 -0.62 -0.603 -0.712 -0.869 -0.97 -0.915 -1 -0.956 -0.883 -0.86 -0.799 -0.92 -0.773 -0.545 -0.514 -0.641 -0.768 -0.876 -1.016 -1.315 -1.328 -1.214 -1.037 -0.954 -0.941 -0.939 -1.05 -1.126 -1.16 -1.173 -1.14 -1.146 -1.196 -1.331 -1.294 -1.281 -1.106 -1.097 -1.046 -0.975 -0.962 -0.977 -0.968 -0.948 -1.002 -1.045 -1.106 -1.165 -1.04 -0.823 -0.913 -1.181 -1.153 -1.12 -1.099 -1.02 -0.955 -0.931 -0.92 -0.971 -1.07 -1.087 -1.088 -1.105 -1.142 -1.19 -1.416 -1.38 -1.182 -0.975 -1.025 -1.146 -1.241 -1.32 -1.351 -1.184 -1.091 -0.996 -1.005 -1.025 -1.088 -1.081 -1.057 -1.031 -1.142 -1.063 -0.944 -0.668 -0.674 -0.901 -1.018 -1.161 -1.253 -1.262 -1.272 -1.247 -1.028 -1.165 -1.287 -1.22 -1.19 -1.157 -1.105 -1.154 -1.252 -1.241 -1.247 -1.189 -1.267 -1.354 -1.366 -1.34 -1.31 -1.281 -1.253 -1.224 -1.205 -1.185 -1.166 -1.147 -1.172 -1.164 -1.112 -1.06 -1.008 -0.956 -0.912 -0.889 -0.865 -0.842 -0.818 -0.786 -0.718 -0.65 -0.583 -0.515 -0.501 -0.622 -0.743 -0.864 -0.985 -1.003 -1.013 -1.022 -1.032 -1.041 -1.05 -1.06 -1.069 -1.078 -1.088 -1.096 -1.091 -1.085 -1.08 -1.074 -1.068 -1.063 -1.057 -1.052 -1.046 -1.041 -1.035 -1.029 -1.024 -1.018 -1.013 -1.007 -1.002 -0.996 -0.99 -0.985 -0.979 -0.974 -0.968 -0.963 -0.957 -0.937 -0.907 -0.789 -0.789 -0.898 -0.908 -0.919 -0.929 -0.939 -0.949 -0.959 -0.97 -0.98 -0.99 -1 -1.01 -1.02 -1.03 -1.04 -1.051 -1.061 -1.071 -1.081 -1.091 -1.101 -1.111 -1.121 -1.13 -1.138 -1.146 -1.107 -1.057 -1.008 -0.958 -0.908 -0.858 -0.844 -0.846 -0.845 -0.849 -0.853 -0.857 -0.861 -0.865 -0.869 -0.873 -0.877 -0.881 -0.885 -0.889 -0.893 -0.897 -0.901 -0.905 -0.909 -0.913 -0.917 -0.921 -0.925 -0.929 -0.933 -0.937 -0.941 -0.945 -0.949 -0.953 -0.957 -0.961 -0.965 -0.969 -0.973 -0.977 -0.981 -0.985 -0.989 -0.993 -0.997 -1.001 -1.005 -1.009 -1.013 -1.017 -1.021 -1.025 -1.029 -1.033 -1.037 -1.041 -1.045 -1.049 -1.053 -1.053 -1.052 -1.052 -1.052 -1.051 -1.051 -1.051 -1.053 -1.055 -1.031 -1.006 -0.982 -0.948 -0.911 -0.874 -0.837 -0.8 -0.763 -0.726 -0.7 -0.704 -0.707 -0.71 -0.714 -0.717 -0.72 -0.723 -0.727 -0.73 -0.733 -0.737 -0.74 -0.743 -0.747 -0.75 -0.753 -0.757 -0.76 -0.763 -0.767 -0.77 -0.773 -0.781 -0.793 -0.802 -0.803 -0.803 -0.804 -0.804 -0.804 -0.805 -0.81 -0.822 -0.834 -0.845 -0.862 -0.882 -0.903 -0.924 -0.944 -0.965 -0.986 -1.007 -1.027 -1.048 -1.069 -1.09
-1.082 -0.969 -0.926 -0.862 -0.985 -1.181 -1.073 -1.111 -1.279 -1.39 -1.421 -1.289 -1.239 -1.226 -1.034 -0.883 -0.938 -1.113 -1.06 -1.001 -0.927 -0.793 -0.801 -0.811 -0.81 -0.838 -0.857 -0.897 -0.957 -1.032 -1.271 -1.478 -1.419 -1.3 -1.298 -1.1 -0.949 -1.027 -1.182 -1.237 -1.028 -0.908 -0.829 -0.781 -0.716 -0.737 -0.789 -0.77 -0.684 -0.595 -0.61 -0.696 -0.816 -0.861 -0.906 -0.999 -1.204 -1.073 -1.045 -1.049 -1.039 -1.003 -1.09 -1.038 -1.094 -1.158 -1.136 -1.165 -1.005 -1.005 -1.011 -1.076 -1.221 -1.055 -0.933 -0.962 -1.236 -1.164 -1.251 -1.383 -1.195 -1.17 -1.246 -1.253 -1.195 -1.11 -0.881 -0.821 -0.733 -0.78 -0.765 -0.806 -0.888 -0.971 -0.729 -0.421 -0.362 -0.471 -0.593 -0.617 -0.79 -0.907 -0.914 -0.894 -0.877 -0.873 -0.83 -0.804 -0.944 -1.041 -0.893 -0.672 -0.636 -0.706 -0.831 -0.856 -0.998 -1.059 -1.098 -1.025 -0.923 -0.872 -0.888 -0.924 -1.05 -1.048 -1.087 -1.115 -1.245 -1.158 -1.192 -1.219 -1.217 -1.14 -1.071 -1.134 -1.164 -1.018 -0.969 -0.944 -0.899 -0.892 -0.947 -0.977 -1.03 -1.085 -1.062 -0.99 -1.044 -1.242 -1.194 -1.135 -1.126 -0.99 -0.954 -0.95 -0.827 -0.902 -1.045 -1.049 -1.027 -1.061 -1.089 -1.191 -1.368 -1.342 -1.208 -1.018 -1.063 -1.169 -1.217 -1.271 -1.308 -1.163 -1.063 -1.005 -1.017 -1.028 -1.057 -1.123 -1.057 -1.18 -1.278 -1.095 -0.902 -0.628 -0.664 -0.904 -1.091 -1.306 -1.442 -1.32 -1.321 -1.203 -1.096 -1.206 -1.395 -1.37 -1.175 -1.137 -1.119 -1.18 -1.262 -1.284 -1.255 -1.25 -1.314 -1.335 -1.391 -1.361 -1.333 -1.304 -1.278 -1.259 -1.24 -1.22 -1.201 -1.181 -1.218 -1.199 -1.147 -1.095 -1.043 -0.991 -0.939 -0.894 -0.87 -0.847 -0.823 -0.795 -0.727 -0.659 -0.591 -0.523 -0.455 -0.522 -0.643 -0.765 -0.886 -1.007 -1.025 -1.034 -1.043 -1.053 -1.062 -1.071 -1.081 -1.09 -1.1 -1.094 -1.089 -1.083 -1.078 -1.072 -1.066 -1.061 -1.055 -1.05 -1.044 -1.039 -1.033 -1.027 -1.022 -1.016 -1.011 -1.005 -1 -0.994 -0.988 -0.983 -0.977 -0.972 -0.966 -0.961 -0.955 -0.949 -0.808 -0.788 -0.788 -0.798 -0.908 -0.919 -0.929 -0.939 -0.949 -0.959 -0.969 -0.98 -0.99 -1 -1.01 -1.02 -1.03 -1.04 -1.051 -1.061 -1.071 -1.081 -1.091 -1.101 -1.111 -1.121 -1.132 -1.142 -1.052 -1.016 -1.052 -1.003 -0.953 -0.903 -0.758 -0.843 -0.841 -0.845 -0.849 -0.853 -0.857 -0.861 -0.865 -0.869 -0.873 -0.877 -0.881 -0.885 -0.889 -0.893 -0.897 -0.901 -0.905 -0.909 -0.913 -0.917 -0.922 -0.925 -0.929 -0.933 -0.937 -0.941 -0.945 -0.949 -0.953 -0.957 -0.961 -0.965 -0.969 -0.973 -0.977 -0.981 -0.985 -0.989 -0.993 -0.997 -1.001 -1.005 -1.009 -1.013 -1.017 -1.021 -1.025 -1.029 -1.033 -1.037 -1.041 -1.045 -1.049 -1.053 -1.053 -1.053 -1.052 -1.052 -1.051 -1.051 -1.051 -1.067 -1.046 -1.021 -0.997 -0.97 -0.932 -0.895 -0.858 -0.821 -0.784 -0.747 -0.71 -0.7 -0.704 -0.707 -0.71 -0.714 -0.717 -0.72 -0.724 -0.727 -0.73 -0.734 -0.737 -0.74 -0.743 -0.747 -0.75 -0.753 -0.757 -0.76 -0.763 -0.767 -0.77 -0.773 -0.782 -0.794 -0.802 -0.802 -0.803 -0.803 -0.804 -0.804 -0.804 -0.814 -0.826 -0.837 -0.85 -0.87 -0.891 -0.912 -0.932 -0.953 -0.974 -0.995 -1.015 -1.036 -1.057 -1.077 -1.098
-1.123 -1.023 -0.956 -0.874 -0.915 -1.103 -1.194 -1.299 -1.409 -1.456 -1.516 -1.464 -1.343 -1.3 -1.13 -0.947 -1.018 -1.224 -1.029 -0.959 -0.894 -0.858 -0.804 -0.814 -0.828 -0.837 -0.831 -0.912 -0.99 -1 -1.259 -1.351 -1.35 -1.344 -1.341 -1.168 -1.135 -1.147 -1.26 -1.311 -0.928 -0.838 -0.83 -0.735 -0.691 -0.726 -0.846 -0.83 -0.668 -0.647 -0.677 -0.73 -0.787 -0.842 -0.872 -0.883 -0.928 -0.969 -1.058 -1.025 -0.983 -0.97 -0.957 -0.978 -0.978 -1.045 -1.115 -1.009 -0.963 -0.972 -1.025 -1.125 -1.329 -1.333 -1.066 -1.041 -1.211 -1.245 -1.276 -1.274 -1.126 -1.151 -1.31 -1.253 -1.172 -1.173 -0.967 -0.845 -0.742 -0.883 -0.727 -0.728 -0.875 -0.899 -0.761 -0.524 -0.438 -0.503 -0.678 -0.704 -0.73 -0.808 -0.899 -0.919 -0.848 -0.796 -0.84 -0.912 -1.056 -1.12 -0.932 -0.715 -0.604 -0.663 -0.853 -0.848 -1.212 -1.141 -1.185 -1.061 -0.889 -0.864 -0.842 -0.849 -0.916 -0.987 -1 -1.021 -1.166 -1.151 -1.191 -1.187 -1.265 -1.129 -1 -1.045 -1.112 -1.231 -1.148 -0.974 -0.888 -0.86 -0.846 -0.948 -1.019 -1.135 -1.109 -1.02 -0.963 -1.01 -1.105 -1.133 -1.147 -1.127 -1.043 -0.984 -0.905 -0.988 -0.98 -0.993 -1.001 -1.007 -1.051 -1.213 -1.163 -1.237 -1.28 -1.204 -1.148 -1.205 -1.221 -1.179 -1.157 -1.095 -1.019 -1.017 -1.046 -1.043 -1.139 -1.311 -1.295 -1.328 -1.365 -1.187 -1.051 -0.879 -0.878 -0.951 -1.053 -1.236 -1.287 -1.397 -1.499 -1.401 -1.326 -1.314 -1.288 -1.243 -1.199 -1.258 -1.268 -1.15 -1.208 -1.236 -1.231 -1.261 -1.345 -1.341 -1.413 -1.384 -1.356 -1.332 -1.313 -1.294 -1.274 -1.255 -1.235 -1.222 -1.264 -1.234 -1.182 -1.13 -1.078 -1.026 -0.974 -0.922 -0.875 -0.851 -0.828 -0.803 -0.735 -0.667 -0.6 -0.532 -0.464 -0.423 -0.544 -0.665 -0.786 -0.907 -1.028 -1.046 -1.055 -1.065 -1.074 -1.083 -1.093 -1.102 -1.098 -1.092 -1.087 -1.081 -1.076 -1.07 -1.064 -1.059 -1.053 -1.048 -1.042 -1.037 -1.031 -1.025 -1.02 -1.014 -1.009 -1.003 -0.998 -0.992 -0.986 -0.981 -0.975 -0.97 -0.964 -0.959 -0.953 -0.947 -0.842 -0.811 -0.782 -0.792 -0.903 -0.914 -0.925 -0.936 -0.947 -0.958 -0.969 -0.979 -0.989 -0.999 -1.009 -1.02 -1.03 -1.04 -1.05 -1.06 -1.07 -1.08 -1.09 -1.1 -1.111 -1.121 -1.131 -1.043 -1.05 -1.046 -1.011 -0.998 -0.948 -0.779 -0.749 -0.751 -0.842 -0.846 -0.85 -0.854 -0.858 -0.862 -0.866 -0.87 -0.874 -0.878 -0.882 -0.886 -0.89 -0.894 -0.897 -0.901 -0.905 -0.909 -0.913 -0.917 -0.922 -0.926 -0.93 -0.934 -0.938 -0.942 -0.946 -0.95 -0.954 -0.958 -0.962 -0.966 -0.97 -0.974 -0.978 -0.982 -0.986 -0.99 -0.994 -0.998 -1.002 -1.006 -1.01 -1.014 -1.018 -1.022 -1.026 -1.03 -1.034 -1.038 -1.042 -1.046 -1.05 -1.053 -1.053 -1.053 -1.052 -1.052 -1.052 -1.051 -1.051 -1.061 -1.036 -1.012 -0.987 -0.954 -0.917 -0.879 -0.842 -0.805 -0.768 -0.731 -0.697 -0.7 -0.704 -0.707 -0.71 -0.714 -0.717 -0.72 -0.724 -0.727 -0.73 -0.734 -0.737 -0.74 -0.744 -0.747 -0.75 -0.754 -0.757 -0.76 -0.763 -0.767 -0.77 -0.773 -0.782 -0.794 -0.802 -0.802 -0.802 -0.803 -0.803 -0.804 -0.806 -0.818 -0.829 -0.841 -0.858 -0.879 -0.9 -0.92 -0.941 -0.962 -0.983 -1.003 -1.024 -1.045 -1.065 -1.086 -1.107
-1.004 -1.017 -1.076 -1.121 -1.067 -1.212 -1.21 -1.369 -1.543 -1.519 -1.483 -1.412 -1.345 -1.341 -1.205 -1.116 -1.106 -1.133 -1.078 -0.954 -0.827 -0.716 -0.733 -0.862 -0.837 -0.782 -0.76 -0.863 -0.98 -1.049 -1.178 -1.228 -1.277 -1.314 -1.241 -1.207 -1.171 -1.186 -1.246 -1.15 -0.998 -0.899 -0.796 -0.732 -0.713 -0.709 -0.861 -0.919 -0.903 -0.878 -0.789 -0.782 -0.837 -0.861 -0.866 -0.81 -0.799 -0.907 -0.983 -0.987 -0.991 -0.926 -0.861 -0.934 -0.96 -1.019 -1.135 -0.99 -0.931 -0.936 -1.026 -1.198 -1.423 -1.396 -1.204 -1.201 -1.219 -1.265 -1.304 -1.288 -1.22 -1.215 -1.293 -1.212 -1.105 -1.016 -1.027 -1.041 -1.068 -0.959 -0.827 -0.786 -0.805 -0.762 -0.757 -0.722 -0.534 -0.549 -0.675 -0.701 -0.866 -0.845 -0.859 -0.947 -0.902 -0.847 -0.856 -0.93 -1.009 -0.98 -0.924 -0.769 -0.638 -0.712 -0.846 -0.937 -1.118 -1.15 -1.203 -1.058 -0.905 -0.848 -0.824 -0.794 -0.841 -0.982 -1.003 -0.996 -1.086 -1.091 -1.146 -1.135 -1.223 -1.211 -1.098 -1.082 -1.187 -1.186 -1.197 -1.108 -0.961 -0.83 -0.827 -0.881 -0.997 -1.099 -1.075 -1.014 -0.961 -1.01 -1.092 -1.131 -1.163 -1.21 -1.18 -1.172 -1.08 -1.058 -0.927 -0.905 -0.941 -1.051 -1.182 -1.226 -1.113 -1.264 -1.308 -1.213 -1.127 -1.154 -1.176 -1.06 -1.076 -1.083 -0.99 -1.01 -1.138 -1.128 -1.245 -1.375 -1.282 -1.346 -1.371 -1.161 -1.098 -0.987 -1 -0.964 -1.247 -1.271 -1.281 -1.367 -1.458 -1.412 -1.408 -1.317 -1.277 -1.248 -1.233 -1.162 -1.126 -1.339 -1.068 -1.015 -1.223 -1.253 -1.371 -1.363 -1.436 -1.408 -1.387 -1.367 -1.348 -1.328 -1.309 -1.289 -1.27 -1.269 -1.31 -1.269 -1.217 -1.165 -1.113 -1.061 -1.009 -0.957 -0.905 -0.856 -0.833 -0.686 -0.744 -0.676 -0.608 -0.54 -0.472 -0.404 -0.444 -0.565 -0.686 -0.807 -0.929 -1.05 -1.067 -1.076 -1.086 -1.095 -1.105 -1.101 -1.096 -1.09 -1.085 -1.079 -1.073 -1.068 -1.062 -1.057 -1.051 -1.046 -1.04 -1.034 -1.029 -1.023 -1.018 -1.012 -1.007 -1.001 -0.995 -0.99 -0.983 -0.975 -0.968 -0.961 -0.953 -0.952 -0.959 -0.965 -0.965 -0.837 -0.782 -0.87 -0.881 -0.892 -0.903 -0.914 -0.924 -0.935 -0.946 -0.957 -0.968 -0.979 -0.989 -1 -1.011 -1.022 -1.033 -1.044 -1.055 -1.065 -1.076 -1.087 -1.098 -1.109 -1.12 -1.032 -1.046 -1.052 -1.019 -1.005 -0.806 -0.803 -0.744 -0.738 -0.749 -0.846 -0.85 -0.854 -0.858 -0.862 -0.866 -0.87 -0.874 -0.878 -0.882 -0.886 -0.89 -0.894 -0.898 -0.902 -0.906 -0.91 -0.914 -0.918 -0.922 -0.926 -0.93 -0.934 -0.938 -0.942 -0.946 -0.95 -0.954 -0.958 -0.962 -0.966 -0.97 -0.974 -0.978 -0.982 -0.986 -0.99 -0.994 -0.998 -1.002 -1.006 -1.01 -1.014 -1.018 -1.022 -1.026 -1.03 -1.034 -1.038 -1.042 -1.046 -1.05 -1.053 -1.053 -1.053 -1.052 -1.052 -1.052 -1.051 -1.055 -1.051 -1.027 -1.002 -0.975 -0.938 -0.901 -0.864 -0.826 -0.789 -0.752 -0.715 -0.697 -0.701 -0.704 -0.707 -0.711 -0.714 -0.717 -0.72 -0.724 -0.727 -0.73 -0.734 -0.737 -0.74 -0.744 -0.747 -0.75 -0.754 -0.757 -0.76 -0.764 -0.767 -0.77 -0.774 -0.783 -0.795 -0.801 -0.802 -0.802 -0.802 -0.803 -0.803 -0.81 -0.822 -0.833 -0.846 -0.867 -0.888 -0.908 -0.929 -0.95 -0.971 -0.991 -1.012 -1.033 -1.053 -1.074 -1.095 -1.116
-0.879 -0.966 -1.014 -1.053 -1.138 -1.201 -1.239 -1.401 -1.626 -1.582 -1.466 -1.399 -1.343 -1.275 -1.171 -1.132 -1.127 -1.181 -1.203 -0.949 -0.775 -0.596 -0.637 -0.829 -0.8 -0.714 -0.706 -1.016 -1.03 -1.175 -1.098 -1.14 -1.189 -0.571 -1.235 -1.278 -1.248 -1.244 -1.255 -1.151 -1.002 -0.925 -0.807 -0.698 -0.737 -0.775 -0.905 -0.991 -1.007 -0.957 -0.803 -0.815 -0.889 -0.902 -0.898 -0.896 -0.84 -0.884 -1.015 -0.985 -0.973 -0.9 -0.874 -0.904 -0.956 -1.121 -1.093 -1.074 -0.977 -0.947 -0.997 -1.228 -1.342 -1.289 -1.225 -1.216 -1.235 -1.249 -1.31 -1.349 -1.273 -1.234 -1.221 -1.163 -1.042 -0.942 -1.012 -1.092 -1.122 -1.173 -1.046 -0.91 -0.862 -0.791 -0.804 -0.752 -0.529 -0.579 -0.685 -0.694 -0.78 -0.828 -0.785 -0.791 -0.925 -0.848 -0.83 -0.939 -1 -0.899 -0.856 -0.842 -0.726 -0.789 -0.828 -0.837 -0.825 -0.98 -1.051 -1.039 -0.853 -0.786 -0.828 -0.831 -0.895 -1.007 -1.031 -0.998 -1.015 -1 -1.101 -1.207 -1.23 -1.218 -1.503 -1.219 -1.325 -1.3 -1.216 -1.118 -1.029 -0.864 -0.819 -0.849 -0.966 -1.064 -1.081 -0.987 -0.967 -1.049 -1.056 -1.109 -1.204 -1.239 -1.199 -1.214 -1.083 -1.002 -0.953 -0.909 -0.928 -1.023 -1.167 -1.411 -0.917 -1.131 -1.189 -1.157 -1.135 -1.098 -1.09 -1.005 -1.039 -1.164 -1.191 -1.112 -1.12 -1.164 -1.181 -1.192 -1.237 -1.435 -1.42 -1.233 -1.119 -1.016 -1.044 -1.087 -1.225 -1.246 -1.209 -1.345 -1.378 -1.377 -1.371 -1.339 -1.24 -1.242 -1.194 -1.114 -1.129 -1.066 -1.005 -0.916 -1.035 -1.187 -1.286 -1.33 -1.36 -1.383 -1.421 -1.402 -1.382 -1.363 -1.343 -1.324 -1.304 -1.316 -1.355 -1.304 -1.252 -1.2 -1.148 -1.096 -1.044 -0.992 -0.94 -0.888 -0.693 -0.696 -0.683 -0.684 -0.617 -0.549 -0.481 -0.298 -0.244 -0.243 -0.309 -0.708 -0.829 -0.95 -1.071 -0.923 -0.939 -1.107 -1.105 -1.099 -1.094 -1.088 -1.083 -1.077 -1.071 -1.066 -1.06 -1.055 -1.049 -1.044 -1.038 -1.031 -1.024 -1.016 -1.009 -1.002 -0.994 -0.987 -0.98 -0.972 -0.965 -0.957 -0.962 -0.969 -0.976 -0.982 -0.989 -0.996 -0.987 -0.956 -0.876 -0.854 -0.858 -0.869 -0.88 -0.891 -0.902 -0.913 -0.924 -0.934 -0.945 -0.956 -0.967 -0.978 -0.989 -0.999 -1.01 -1.021 -1.032 -1.043 -1.054 -1.065 -1.075 -1.086 -1.097 -1.108 -1.031 -1.028 -1.03 -0.977 -0.924 -0.775 -0.741 -0.747 -0.842 -0.846 -0.85 -0.854 -0.858 -0.862 -0.866 -0.87 -0.874 -0.878 -0.882 -0.886 -0.89 -0.894 -0.898 -0.902 -0.906 -0.91 -0.914 -0.918 -0.922 -0.926 -0.93 -0.934 -0.938 -0.942 -0.946 -0.95 -0.954 -0.958 -0.962 -0.966 -0.97 -0.974 -0.978 -0.982 -0.986 -0.99 -0.994 -0.998 -1.002 -1.006 -1.01 -1.014 -1.018 -1.022 -1.026 -1.03 -1.034 -1.038 -1.042 -1.046 -1.05 -1.054 -1.053 -1.053 -1.052 -1.052 -1.052 -1.051 -1.066 -1.042 -1.018 -0.993 -0.959 -0.922 -0.885 -0.848 -0.811 -0.773 -0.737 -0.699 -0.697 -0.701 -0.704 -0.707 -0.711 -0.714 -0.717 -0.721 -0.724 -0.727 -0.731 -0.734 -0.737 -0.74 -0.744 -0.747 -0.75 -0.754 -0.757 -0.76 -0.764 -0.767 -0.77 -0.774 -0.783 -0.795 -0.801 -0.801 -0.802 -0.802 -0.802 -0.803 -0.814 -0.825 -0.837 -0.855 -0.876 -0.896 -0.917 -0.938 -0.959 -0.979 -1 -1.021 -1.041 -1.062 -1.083 -1.103 -1.124
-0.74 -0.84 -0.939 -0.979 -1.018 -1.215 -1.213 -1.316 -1.403 -1.447 -1.345 -1.31 -1.296 -1.277 -1.169 -1.098 -1.133 -1.127 -1.098 -0.936 -0.777 -0.731 -0.708 -0.751 -0.747 -0.771 -0.821 -1.033 -1.036 -1.199 -1.221 -1.168 -1.184 -1.156 -1.155 -1.209 -1.214 -1.247 -1.262 -1.185 -1.127 -1.003 -0.916 -0.769 -0.842 -1.042 -1.108 -1.005 -0.998 -0.961 -0.904 -0.865 -0.908 -0.922 -0.89 -0.898 -0.878 -0.91 -0.986 -0.987 -0.926 -0.884 -0.861 -0.88 -1.11 -1.064 -1.204 -1.122 -1.057 -1.04 -1.087 -1.237 -1.326 -1.255 -1.261 -1.261 -1.23 -1.2 -1.223 -1.261 -1.197 -1.096 -1.144 -1.096 -1.029 -0.997 -1.084 -1.101 -1.249 -1.291 -1.184 -1.076 -0.895 -0.878 -0.769 -0.672 -0.702 -0.576 -0.617 -0.708 -0.762 -0.807 -0.823 -0.839 -0.865 -0.754 -0.757 -0.7 -0.655 -0.837 -0.792 -0.824 -0.803 -0.787 -0.783 -0.728 -0.719 -0.797 -0.897 -1.063 -0.866 -0.812 -0.845 -0.895 -0.952 -0.968 -0.987 -1.005 -0.933 -0.889 -1.003 -1.083 -1.237 -1.177 -1.207 -1.227 -1.295 -1.276 -1.252 -1.128 -1.039 -0.834 -0.806 -0.858 -0.935 -1.036 -1.064 -0.935 -0.962 -1.124 -1.026 -1.055 -1.195 -1.265 -1.174 -1.036 -0.968 -0.973 -0.922 -0.921 -0.917 -0.991 -1.119 -1.142 -1.149 -1.255 -1.126 -1.08 -1.085 -1.103 -1.099 -1.103 -1.113 -1.224 -1.267 -1.119 -1.079 -1.127 -1.117 -1.157 -1.187 -1.217 -1.271 -1.323 -1.151 -0.955 -1.076 -1.118 -1.098 -1.208 -1.213 -1.293 -1.344 -1.422 -1.4 -1.279 -1.196 -1.148 -1.151 -1.056 -1.149 -1.072 -0.962 -0.934 -1.023 -1.265 -1.369 -1.353 -1.449 -1.438 -1.47 -1.436 -1.417 -1.397 -1.378 -1.359 -1.339 -1.302 -1.286 -1.339 -1.287 -1.235 -1.183 -1.131 -1.079 -1.027 -0.975 -0.71 -0.704 -0.71 -0.702 -0.66 -0.603 -0.522 -0.441 -0.299 -0.186 -0.151 -0.307 -0.558 -0.709 -0.85 -0.885 -0.964 -0.991 -0.952 -1.103 -1.097 -1.092 -1.086 -1.079 -1.072 -1.065 -1.057 -1.05 -1.043 -1.035 -1.028 -1.02 -1.013 -1.006 -0.998 -0.991 -0.984 -0.976 -0.969 -0.966 -0.973 -0.979 -0.986 -0.993 -0.999 -1.006 -1.013 -1.019 -1.026 -1.01 -0.975 -0.886 -0.84 -0.842 -0.847 -0.858 -0.869 -0.879 -0.89 -0.901 -0.912 -0.923 -0.934 -0.944 -0.955 -0.966 -0.977 -0.988 -0.999 -1.01 -1.02 -1.031 -1.042 -1.053 -1.064 -1.075 -1.085 -1.108 -1.055 -1.002 -0.949 -0.895 -0.85 -0.756 -0.86 -0.862 -0.853 -0.85 -0.854 -0.858 -0.862 -0.866 -0.87 -0.874 -0.878 -0.882 -0.886 -0.89 -0.894 -0.898 -0.902 -0.906 -0.91 -0.914 -0.918 -0.923 -0.927 -0.931 -0.935 -0.939 -0.943 -0.947 -0.951 -0.955 -0.959 -0.962 -0.966 -0.97 -0.974 -0.978 -0.982 -0.986 -0.99 -0.994 -0.998 -1.002 -1.006 -1.01 -1.014 -1.018 -1.022 -1.026 -1.03 -1.034 -1.038 -1.042 -1.046 -1.05 -1.054 -1.053 -1.053 -1.053 -1.052 -1.052 -1.051 -1.057 -1.033 -1.008 -0.98 -0.943 -0.906 -0.869 -0.832 -0.795 -0.758 -0.721 -0.694 -0.697 -0.701 -0.704 -0.707 -0.711 -0.714 -0.717 -0.721 -0.724 -0.727 -0.731 -0.734 -0.737 -0.741 -0.744 -0.747 -0.751 -0.754 -0.757 -0.76 -0.764 -0.767 -0.77 -0.774 -0.784 -0.795 -0.8 -0.801 -0.801 -0.802 -0.802 -0.806 -0.818 -0.829 -0.843 -0.864 -0.884 -0.905 -0.926 -0.947 -0.967 -0.988 -1.009 -1.029 -1.05 -1.071 -1.091 -1.112 -1.133
-0.754 -0.836 -0.865 -0.842 -0.914 -0.986 -1.135 -1.3 -1.318 -1.333 -1.327 -1.309 -1.316 -1.295 -1.131 -1.064 -1.104 -1.137 -1.156 -0.981 -0.822 -0.757 -0.741 -0.756 -0.749 -0.762 -1.039 -0.963 -1.088 -1.21 -1.244 -1.291 -1.168 -1.142 -1.1 -1.058 -1.148 -1.23 -1.218 -1.182 -1.132 -1.072 -1.024 -1.018 -1.048 -1.102 -1.105 -1.01 -1.036 -0.974 -0.871 -0.86 -0.88 -0.874 -0.844 -0.823 -0.876 -0.935 -0.962 -0.97 -0.942 -0.89 -0.775 -0.808 -1.062 -1.045 -1.14 -1.148 -1.036 -1.017 -1.089 -1.153 -1.183 -1.227 -1.257 -1.245 -1.258 -1.2 -1.201 -1.122 -1.031 -0.992 -1.094 -1.12 -1.071 -1.063 -1.081 -1.118 -1.145 -1.229 -1.27 -1.112 -1.124 -1.018 -0.847 -0.69 -0.7 -0.57 -0.663 -0.763 -0.783 -0.86 -0.937 -0.908 -0.82 -0.752 -0.723 -0.671 -0.643 -0.706 -0.869 -0.924 -0.842 -0.793 -0.783 -0.718 -0.72 -0.723 -0.715 -0.833 -0.796 -0.848 -0.878 -0.936 -0.944 -0.954 -0.972 -1.021 -0.95 -0.866 -1.028 -1.033 -1.118 -1.184 -1.168 -1.217 -1.28 -1.289 -1.175 -1.167 -0.949 -0.836 -0.766 -0.797 -0.947 -1.002 -1.056 -1.011 -1.045 -1.035 -0.948 -1.028 -1.089 -1.134 -1.126 -1.106 -1.041 -0.999 -0.943 -0.92 -0.902 -0.848 -0.896 -1.205 -1.082 -1.189 -1.138 -1.063 -1.088 -1.16 -1.154 -1.134 -1.215 -1.141 -1.141 -1.077 -1.118 -1.157 -1.101 -1.123 -0.971 -0.979 -1.178 -1.218 -1.085 -1.047 -1.04 -1.007 -0.98 -1.09 -1.126 -1.104 -1.208 -1.327 -1.222 -1.255 -1.152 -1.133 -1.133 -1.114 -1.107 -1.041 -0.929 -0.903 -1.024 -1.361 -1.471 -1.377 -1.474 -1.46 -1.53 -1.516 -1.481 -1.439 -1.413 -1.393 -1.298 -1.336 -1.343 -1.262 -1.322 -1.27 -1.218 -1.159 -1.099 -1.039 -0.979 -0.919 -0.707 -0.705 -0.69 -0.74 -0.663 -0.586 -0.508 -0.357 -0.235 -0.185 -0.345 -0.512 -0.638 -0.764 -0.905 -0.979 -1.003 -0.961 -1.091 -1.084 -1.076 -1.069 -1.061 -1.054 -1.047 -1.039 -1.032 -1.025 -1.017 -1.01 -1.002 -0.995 -0.988 -0.98 -0.973 -0.977 -0.983 -0.99 -0.996 -1.003 -1.01 -1.016 -1.023 -1.03 -1.036 -1.043 -1.05 -1.056 -1.033 -0.985 -0.897 -0.828 -0.827 -0.829 -0.835 -0.846 -0.857 -0.868 -0.879 -0.889 -0.9 -0.911 -0.922 -0.933 -0.944 -0.954 -0.965 -0.976 -0.987 -0.998 -1.009 -1.02 -1.03 -1.041 -1.052 -1.1 -1.08 -1.027 -0.974 -0.921 -0.867 -0.861 -0.865 -0.87 -0.875 -0.875 -0.866 -0.858 -0.859 -0.863 -0.867 -0.871 -0.875 -0.879 -0.883 -0.887 -0.891 -0.895 -0.899 -0.903 -0.907 -0.911 -0.915 -0.919 -0.923 -0.927 -0.931 -0.935 -0.939 -0.943 -0.947 -0.951 -0.955 -0.959 -0.963 -0.967 -0.971 -0.975 -0.979 -0.983 -0.987 -0.991 -0.995 -0.999 -1.003 -1.007 -1.011 -1.015 -1.019 -1.023 -1.027 -1.031 -1.035 -1.039 -1.043 -1.047 -1.051 -1.054 -1.053 -1.053 -1.053 -1.052 -1.052 -1.057 -1.048 -1.023 -0.999 -0.965 -0.927 -0.89 -0.853 -0.816 -0.779 -0.742 -0.705 -0.694 -0.698 -0.701 -0.704 -0.708 -0.711 -0.714 -0.717 -0.721 -0.724 -0.727 -0.731 -0.734 -0.737 -0.741 -0.744 -0.747 -0.751 -0.754 -0.757 -0.761 -0.764 -0.767 -0.771 -0.774 -0.784 -0.796 -0.8 -0.8 -0.801 -0.801 -0.802 -0.81 -0.821 -0.833 -0.852 -0.872 -0.893 -0.914 -0.935 -0.955 -0.976 -0.997 -1.017 -1.038 -1.059 -1.079 -1.1 -1.121 -1.142
-0.88 -0.907 -0.89 -0.872 -0.812 -0.824 -0.999 -1.09 -1.196 -1.289 -1.324 -1.397 -1.352 -1.234 -1.104 -1.071 -1.064 -1.101 -1.119 -0.992 -0.815 -0.776 -0.762 -0.768 -0.726 -0.681 -0.835 0.341 -1.192 -1.388 -1.356 -1.202 -1.174 -1.152 -1.116 -1.101 -1.207 -1.376 -1.432 -1.178 -1.109 -1.104 -1.095 -1.087 -1.106 -1.128 -1.115 -1.055 -1.053 -0.953 -0.864 -0.856 -0.819 -0.828 -0.828 -0.795 -0.796 -0.892 -1.008 -1.059 -0.934 -0.906 -0.755 -0.783 -0.916 -0.987 -1.111 -1.076 -1.065 -1.02 -1.071 -1.146 -1.065 -1.121 -1.244 -1.237 -1.304 -1.254 -1.099 -1.001 -0.966 -0.966 -1.036 -1.09 -1.046 -1.136 -1.081 -1.114 -1.116 -1.141 -1.177 -1.027 -1.187 -1.14 -0.891 -0.722 -0.73 -0.685 -0.745 -0.816 -0.874 -0.958 -0.966 -0.931 -0.852 -0.713 -0.69 -0.655 -0.649 -0.654 -0.87 -0.948 -0.918 -0.884 -0.828 -0.682 -0.636 -0.693 -0.751 -0.78 -0.755 -0.894 -0.947 -0.943 -0.93 -0.937 -0.946 -1.044 -1.302 -1.386 -1.076 -1.009 -1.15 -1.227 -1.154 -1.189 -1.264 -1.261 -1.072 -0.98 -0.855 -0.793 -0.702 -0.706 -0.841 -0.968 -1.032 -1.089 -1.022 -1.004 -0.959 -1.042 -1.07 -1.092 -1.098 -1.092 -1.039 -1.035 -1.017 -0.953 -0.828 -0.781 -0.784 -0.883 -1.019 -1.196 -1.196 -1.151 -1.152 -1.185 -1.181 -1.169 -1.118 -0.992 -1.044 -0.969 -1.23 -1.217 -1.033 -0.973 -0.991 -1.003 -1.048 -1.126 -1.037 -1.045 -0.958 -0.855 -0.892 -0.952 -1.058 -1.057 -1.153 -1.196 -1.254 -1.304 -1.219 -1.167 -1.255 -1.266 -1.288 -1.17 -0.975 -0.938 -1.408 -1.518 -1.548 -1.345 -1.411 -1.411 -1.491 -1.478 -1.464 -1.45 -1.436 -1.422 -1.308 -1.344 -1.358 -1.271 -1.303 -1.243 -1.183 -1.122 -1.062 -1.002 -0.935 -0.865 -0.799 -0.699 -0.784 -0.769 -0.741 -0.664 -0.586 -0.537 -0.492 -0.543 -0.544 -0.545 -0.613 -0.708 -0.854 -0.961 -0.963 -1.08 -1.073 -1.066 -1.058 -1.051 -1.043 -1.036 -1.029 -1.021 -1.014 -1.007 -0.999 -0.992 -0.984 -0.98 -0.987 -0.994 -1 -1.007 -1.013 -1.02 -1.027 -1.033 -1.04 -1.047 -1.053 -1.06 -1.067 -1.073 -1.08 -1.084 -1.056 -0.996 -0.907 -0.832 -0.813 -0.815 -0.817 -0.824 -0.834 -0.845 -0.856 -0.867 -0.878 -0.889 -0.899 -0.91 -0.921 -0.932 -0.943 -0.954 -0.964 -0.975 -0.986 -0.997 -1.008 -1.019 -1.03 -1.105 -1.052 -0.999 -0.946 -0.892 -0.866 -0.871 -0.876 -0.881 -0.886 -0.891 -0.888 -0.88 -0.871 -0.863 -0.867 -0.871 -0.875 -0.879 -0.883 -0.887 -0.891 -0.895 -0.899 -0.903 -0.907 -0.911 -0.915 -0.919 -0.923 -0.927 -0.931 -0.935 -0.939 -0.943 -0.947 -0.951 -0.955 -0.959 -0.963 -0.967 -0.971 -0.975 -0.979 -0.983 -0.987 -0.991 -0.995 -0.999 -1.003 -1.007 -1.011 -1.015 -1.019 -1.023 -1.027 -1.031 -1.035 -1.039 -1.043 -1.047 -1.051 -1.054 -1.053 -1.053 -1.053 -1.052 -1.052 -1.063 -1.038 -1.014 -0.986 -0.949 -0.912 -0.874 -0.837 -0.8 -0.763 -0.726 -0.691 -0.694 -0.698 -0.701 -0.704 -0.708 -0.711 -0.714 -0.718 -0.721 -0.724 -0.728 -0.731 -0.734 -0.737 -0.741 -0.744 -0.747 -0.751 -0.754 -0.757 -0.761 -0.764 -0.767 -0.771 -0.774 -0.785 -0.796 -0.8 -0.8 -0.8 -0.801 -0.802 -0.814 -0.825 -0.84 -0.86 -0.881 -0.902 -0.923 -0.943 -0.964 -0.985 -1.005 -1.026 -1.047 -1.067 -1.088 -1.109 -1.129 -1.15
-0.948 -0.976 -0.986 -0.845 -0.805 -0.883 -1.023 -1.027 -1.203 -1.291 -1.285 -1.318 -1.263 -1.143 -1.033 -1.055 -1.006 -1.237 -1.04 -0.938 -0.786 -0.749 -0.802 -0.825 -0.715 -0.669 -0.852 -1.271 -1.159 -1.337 -1.306 -1.371 -1.153 -1.135 -1.166 -1.312 -1.318 -1.347 -1.346 -1.238 -1.106 -1.089 -1.123 -1.141 -1.134 -1.142 -1.132 -1.165 -1.117 -0.992 -0.848 -0.847 -0.863 -0.832 -0.793 -0.683 -0.758 -0.822 -1.058 -1.144 -0.994 -0.941 -0.979 -0.946 -0.879 -0.87 -0.954 -1.019 -1.07 -1.063 -1.012 -1.057 -1.054 -1.191 -1.166 -1.199 -1.335 -1.287 -1.07 -0.954 -0.924 -0.915 -0.957 -1.08 -1.092 -1.121 -1.116 -1.117 -1.155 -1.172 -1.083 -1.022 -0.979 -0.999 -0.933 -0.823 -0.789 -0.776 -0.83 -0.845 -0.938 -1.097 -1.149 -0.916 -0.852 -0.74 -0.648 -0.653 -0.631 -0.617 -0.772 -0.903 -0.956 -0.969 -0.89 -0.781 -0.684 -0.727 -0.863 -0.81 -0.96 -1.037 -0.961 -0.891 -0.815 -0.859 -0.886 -0.991 -1.216 -1.309 -1.056 -1.061 -1.257 -1.269 -1.243 -1.239 -1.271 -1.188 -0.99 -0.968 -0.849 -0.812 -0.749 -0.743 -0.89 -0.954 -1.013 -1.04 -1.04 -1.089 -1.043 -0.995 -1.018 -1.056 -1.089 -1.043 -1.032 -1.031 -1.002 -0.949 -0.856 -0.772 -0.694 -0.761 -0.955 -1.087 -1.108 -1.056 -1.128 -1.149 -1.17 -1.174 -1.054 -1.042 -0.968 -0.948 -0.947 -1.087 -1.027 -1.06 -1.127 -1.045 -1.024 -1.004 -0.991 -0.971 -0.828 -0.817 -0.855 -0.967 -1.15 -1.067 -1.103 -1.106 -1.194 -1.33 -1.241 -1.237 -1.31 -1.32 -1.308 -1.234 -1.344 -1.454 -1.534 -1.525 -1.512 -1.497 -1.482 -1.467 -1.453 -1.439 -1.425 -1.411 -1.398 -1.384 -1.368 -1.283 -1.273 -1.288 -1.266 -1.095 -0.937 -0.901 -1.017 -0.946 -0.876 -0.806 -0.786 -0.778 -0.771 -0.763 -0.745 -0.726 -0.545 -0.534 -0.499 -0.611 -0.612 -0.599 -0.604 -0.61 -0.807 -0.979 -0.965 -1.062 -1.055 -1.048 -1.04 -1.033 -1.025 -1.018 -1.011 -1.003 -0.996 -0.989 -0.991 -0.997 -1.004 -1.011 -1.017 -1.024 -1.03 -1.037 -1.044 -1.05 -1.057 -1.064 -1.07 -1.077 -1.084 -1.09 -1.097 -1.104 -1.11 -1.108 -1.079 -1.006 -0.918 -0.837 -0.798 -0.8 -0.803 -0.805 -0.812 -0.823 -0.834 -0.844 -0.855 -0.866 -0.877 -0.888 -0.899 -0.909 -0.92 -0.931 -0.942 -0.953 -0.964 -0.975 -0.985 -0.996 -1.046 -1.077 -1.024 -0.971 -0.917 -0.872 -0.877 -0.882 -0.887 -0.892 -0.897 -0.901 -0.906 -0.901 -0.893 -0.884 -0.875 -0.871 -0.875 -0.879 -0.883 -0.887 -0.891 -0.895 -0.899 -0.903 -0.907 -0.911 -0.915 -0.919 -0.923 -0.927 -0.931 -0.935 -0.939 -0.943 -0.947 -0.951 -0.955 -0.959 -0.963 -0.967 -0.971 -0.975 -0.979 -0.983 -0.987 -0.991 -0.995 -0.999 -1.003 -1.007 -1.011 -1.015 -1.019 -1.023 -1.027 -1.031 -1.035 -1.039 -1.043 -1.047 -1.051 -1.054 -1.054 -1.053 -1.053 -1.052 -1.052 -1.053 -1.029 -1.004 -0.97 -0.933 -0.896 -0.859 -0.821 -0.784 -0.747 -0.71 -0.691 -0.695 -0.698 -0.701 -0.704 -0.708 -0.711 -0.714 -0.718 -0.721 -0.724 -0.728 -0.731 -0.734 -0.738 -0.741 -0.744 -0.748 -0.751 -0.754 -0.757 -0.761 -0.764 -0.767 -0.771 -0.774 -0.785 -0.797 -0.799 -0.8 -0.8 -0.8 -0.806 -0.817 -0.829 -0.848 -0.869 -0.89 -0.91 -0.931 -0.952 -0.973 -0.993 -1.014 -1.035 -1.055 -1.076 -1.097 -1.117 -1.138 -1.159
-0.96 -1.015 -1.003 -0.797 -0.73 -0.821 -0.88 -1.027 -1.175 -1.256 -1.238 -1.308 -1.241 -1.062 -0.963 -0.821 -0.88 -1.059 -1.067 -0.925 -0.811 -0.771 -0.783 -0.807 -0.773 -0.752 -0.8 -1.192 -1.257 -1.165 -1.262 -0.778 -1.122 -1.122 -1.212 -1.393 -1.381 -1.439 -1.475 -1.281 -1.144 -1.133 -1.163 -1.22 -1.269 -1.29 -1.176 -1.137 -1.094 -0.849 -0.773 -0.851 -0.833 -0.875 -0.817 -0.722 -0.756 -0.813 -0.926 -1.01 -0.964 -0.892 -0.942 -0.896 -0.893 -0.817 -0.878 -1.141 -1.162 -1.075 -0.98 -1.002 -1.123 -1.141 -1.134 -1.153 -1.217 -1.198 -1.133 -1.052 -1.049 -0.913 -0.936 -1.034 -1.117 -1.157 -1.155 -1.105 -1.18 -1.332 -1.162 -1.043 -0.948 -0.954 -0.893 -0.777 -0.822 -0.835 -0.854 -0.862 -0.902 -1.044 -1.098 -0.938 -0.861 -0.75 -0.701 -0.707 -0.695 -0.695 -0.904 -0.892 -0.945 -0.946 -0.929 -0.933 -0.771 -0.739 -0.773 -0.878 -1.062 -1.089 -0.975 -0.88 -0.815 -0.779 -0.76 -0.897 -1.035 -0.964 -0.767 -0.901 -1.216 -1.297 -1.239 -1.227 -1.294 -1.259 -1.072 -0.986 -0.953 -0.897 -0.831 -0.79 -0.771 -0.854 -0.992 -0.989 -0.997 -1.052 -0.975 -0.825 -0.876 -0.969 -1.024 -0.989 -0.967 -0.962 -0.972 -0.959 -0.903 -0.834 -0.724 -0.834 -0.96 -0.994 -1.064 -1.067 -1.231 -1.245 -1.137 -1.105 -1.015 -1.038 -1.035 -0.968 -0.994 -1.222 -1.015 -1.049 -1.097 -1.044 -1.023 -1.003 -1.038 -1.114 -0.906 -0.864 -0.887 -0.994 -1.141 -1.091 -1.101 -1.087 -1.063 -1.209 -1.225 -1.24 -1.365 -1.375 -1.327 -1.391 -1.501 -1.511 -1.501 -1.489 -1.474 -1.459 -1.444 -1.429 -1.415 -1.401 -1.387 -1.373 -1.359 -1.345 -1.328 -1.304 -1.273 -1.238 -1.203 -1.069 -0.958 -0.929 -0.841 -0.887 -0.817 -0.78 -0.773 -0.765 -0.757 -0.75 -0.738 -0.555 -0.559 -0.578 -0.568 -0.551 -0.681 -0.599 -0.588 -0.576 -0.726 -0.874 -0.908 -1.044 -1.037 -1.03 -1.022 -1.015 -1.007 -1 -0.994 -1.001 -1.008 -1.014 -1.021 -1.028 -1.034 -1.041 -1.047 -1.054 -1.061 -1.067 -1.074 -1.081 -1.087 -1.094 -1.101 -1.107 -1.114 -1.121 -1.127 -1.134 -1.141 -1.131 -1.101 -1.017 -0.928 -0.841 -0.786 -0.786 -0.788 -0.79 -0.792 -0.8 -0.811 -0.822 -0.833 -0.844 -0.854 -0.865 -0.876 -0.887 -0.898 -0.909 -0.919 -0.93 -0.941 -0.952 -0.963 -0.974 -1.079 -1.049 -0.996 -0.943 -0.889 -0.883 -0.888 -0.893 -0.897 -0.902 -0.907 -0.912 -0.917 -0.921 -0.914 -0.906 -0.897 -0.888 -0.88 -0.879 -0.883 -0.887 -0.891 -0.895 -0.899 -0.903 -0.907 -0.911 -0.915 -0.919 -0.924 -0.928 -0.932 -0.936 -0.94 -0.944 -0.948 -0.952 -0.956 -0.96 -0.964 -0.968 -0.972 -0.976 -0.98 -0.984 -0.988 -0.992 -0.996 -0.999 -1.003 -1.007 -1.012 -1.016 -1.02 -1.024 -1.028 -1.032 -1.036 -1.04 -1.044 -1.048 -1.052 -1.054 -1.054 -1.053 -1.053 -1.053 -1.059 -1.044 -1.02 -0.991 -0.954 -0.917 -0.88 -0.843 -0.806 -0.768 -0.731 -0.694 -0.691 -0.695 -0.698 -0.701 -0.705 -0.708 -0.711 -0.715 -0.718 -0.721 -0.724 -0.728 -0.731 -0.734 -0.738 -0.741 -0.744 -0.748 -0.751 -0.754 -0.758 -0.761 -0.764 -0.768 -0.771 -0.774 -0.786 -0.797 -0.799 -0.799 -0.8 -0.8 -0.809 -0.821 -0.836 -0.857 -0.878 -0.898 -0.919 -0.94 -0.961 -0.981 -1.002 -1.023 -1.043 -1.064 -1.085 -1.105 -1.126 -1.147 -1.168
-0.978 -1.049 -0.976 -0.813 -0.771 -0.787 -0.833 -1 -1.11 -1.178 -1.183 -1.139 -1.077 -1.002 -1.005 -0.903 -0.963 -1.114 -1.254 -0.861 -0.714 -0.8 -0.785 -0.789 -0.805 -0.798 -0.782 -1.105 -1.17 -1.13 -1.176 -0.975 -0.944 -1.118 -1.135 -1.216 -1.278 -1.371 -1.41 -1.264 -1.164 -1.149 -1.229 -1.37 -1.434 -1.305 -0.019 -1.066 -0.971 -0.865 -0.713 -0.737 -0.917 -0.986 -0.963 -0.818 -0.762 -0.751 -0.93 -1.123 -0.941 -0.839 -0.77 -0.789 -0.809 -0.814 -0.959 -1.25 -1.204 -1.122 -1.009 -0.998 -1.15 -1.129 -1.044 -1.052 -1.152 -1.315 -1.184 -1.105 -1.102 -0.959 -1.029 -1.13 -1.153 -1.209 -1.214 -1.222 -1.282 -1.376 -1.31 -1.125 -1.033 -1.1 -0.836 -0.918 -0.938 -0.888 -0.882 -0.834 -0.79 -0.883 -0.951 -0.935 -0.88 -0.789 -0.726 -0.761 -0.752 -0.739 -0.962 -0.876 -0.916 -0.953 -0.918 -0.9 -0.765 -0.816 -0.71 -0.807 -0.915 -0.95 -0.962 -0.918 -0.84 -0.802 -0.795 -0.921 -0.948 -0.954 -0.832 -0.889 -1.178 -1.291 -1.302 -1.254 -1.272 -1.222 -1.238 -1.017 -1.004 -0.94 -0.883 -0.788 -0.761 -0.829 -0.95 -1.001 -0.977 -0.989 -0.944 -0.809 -0.827 -0.867 -0.876 -0.91 -0.932 -0.958 -1.01 -0.964 -0.957 -1.148 -0.925 -0.968 -1 -1.025 -1.249 -1.214 -1.225 -1.24 -1.251 -1.1 -1.121 -1.147 -1.087 -1.054 -1.051 -1.014 -0.98 -0.901 -0.933 -1.059 -1.084 -1.134 -1.192 -1.103 -1.095 -1.013 -0.869 -0.779 -0.878 -1.024 -1.101 -1.107 -1.19 -1.21 -1.291 -1.385 -1.41 -1.43 -1.438 -1.498 -1.488 -1.478 -1.466 -1.451 -1.436 -1.421 -1.406 -1.392 -1.377 -1.362 -1.348 -1.334 -1.321 -1.307 -1.288 -1.264 -1.24 -1.205 -1.17 -0.995 -0.971 -0.926 -0.763 -0.715 -0.775 -0.767 -0.759 -0.752 -0.744 -0.737 -0.729 -0.555 -0.561 -0.573 -0.571 -0.735 -0.757 -0.644 -0.684 -0.679 -0.815 -0.884 -0.873 -0.892 -0.889 -1.012 -1.004 -1.005 -1.011 -1.018 -1.025 -1.031 -1.038 -1.045 -1.051 -1.058 -1.064 -1.071 -1.078 -1.084 -1.091 -1.098 -1.104 -1.111 -1.118 -1.124 -1.131 -1.138 -1.144 -1.151 -1.158 -1.164 -1.171 -1.154 -1.116 -1.027 -0.939 -0.851 -0.791 -0.772 -0.774 -0.776 -0.778 -0.78 -0.789 -0.799 -0.81 -0.821 -0.832 -0.843 -0.854 -0.864 -0.875 -0.886 -0.897 -0.908 -0.919 -0.929 -0.94 -0.993 -1.074 -1.021 -0.968 -0.914 -0.889 -0.893 -0.898 -0.903 -0.908 -0.913 -0.918 -0.923 -0.928 -0.933 -0.934 -0.928 -0.919 -0.91 -0.901 -0.893 -0.884 -0.888 -0.892 -0.896 -0.9 -0.904 -0.908 -0.912 -0.916 -0.92 -0.924 -0.928 -0.932 -0.936 -0.94 -0.944 -0.948 -0.952 -0.956 -0.96 -0.964 -0.968 -0.972 -0.976 -0.98 -0.984 -0.988 -0.992 -0.996 -1 -1.004 -1.008 -1.012 -1.016 -1.02 -1.024 -1.028 -1.032 -1.036 -1.04 -1.044 -1.048 -1.052 -1.054 -1.054 -1.053 -1.053 -1.053 -1.059 -1.035 -1.01 -0.975 -0.938 -0.901 -0.864 -0.827 -0.79 -0.753 -0.715 -0.688 -0.691 -0.695 -0.698 -0.701 -0.705 -0.708 -0.711 -0.715 -0.718 -0.721 -0.725 -0.728 -0.731 -0.735 -0.738 -0.741 -0.744 -0.748 -0.751 -0.754 -0.758 -0.761 -0.764 -0.768 -0.771 -0.774 -0.786 -0.797 -0.798 -0.799 -0.799 -0.802 -0.813 -0.825 -0.845 -0.866 -0.886 -0.907 -0.928 -0.949 -0.969 -0.99 -1.011 -1.031 -1.052 -1.073 -1.093 -1.114 -1.135 -1.156 -1.177
-0.887 -1.043 -1.004 -0.777 -0.785 -0.8 -0.884 -1.027 -1.093 -1.165 -1.17 -1.09 -1.003 -1.025 -1.001 -0.992 -1.018 -1.105 -1.15 -0.968 -0.814 -0.846 -1.049 -0.778 -0.797 -0.793 -0.769 -0.834 -0.963 -0.992 -0.823 -0.913 -0.904 -1.003 -1.023 -1.08 -1.294 -1.214 -1.216 -1.218 -1.226 -1.274 -1.307 -1.417 -1.438 -1.332 -1.145 -0.984 -1.069 -1.027 -0.781 -0.757 -1.015 -1.11 -1.017 -0.952 -0.796 -0.752 -0.87 -1.089 -1.052 -0.853 -0.808 -0.754 -0.734 -0.805 -0.945 -1.113 -1.117 -1.101 -1.058 -1.065 -1.093 -1.063 -0.991 -1.022 -1.147 -1.257 -1.333 -1.265 -1.154 -1.135 -1.263 -1.256 -1.223 -1.222 -1.217 -1.25 -1.288 -1.31 -1.27 -1.242 -1.164 -1.09 -0.915 -0.967 -0.974 -0.912 -0.895 -0.805 -0.77 -0.818 -0.901 -0.953 -0.936 -0.841 -0.774 -0.77 -0.755 -0.932 -0.915 -0.928 -0.882 -0.855 -0.798 -0.848 -0.893 -0.959 -0.745 -0.777 -0.77 -0.738 -0.829 -0.88 -0.926 -0.975 -0.923 -1.045 -1.065 -0.972 -0.924 -1.042 -1.002 -1.305 -1.345 -1.301 -1.294 -1.188 -1.101 -0.99 -0.961 -0.889 -0.849 -0.759 -0.764 -0.865 -1.042 -0.991 -0.99 -1.009 -0.943 -0.922 -0.894 -0.878 -0.863 -0.842 -0.869 -0.946 -0.98 -0.964 -1.212 -0.995 -1.113 -1.155 -1.092 -1.063 -1.096 -1.208 -1.219 -1.234 -1.242 -1.092 -1.115 -1.137 -1.077 -1.043 -1.057 -1.05 -1.014 -0.931 -0.968 -1.152 -1.137 -1.211 -1.229 -1.126 -1.118 -1.037 -0.859 -0.813 -0.89 -1.108 -1.063 -1.038 -1.15 -1.206 -1.331 -1.57 -1.533 -1.384 -1.475 -1.465 -1.455 -1.442 -1.428 -1.413 -1.398 -1.383 -1.368 -1.354 -1.339 -1.324 -1.31 -1.296 -1.282 -1.268 -1.248 -1.224 -1.2 -1.172 -0.986 -0.972 -0.943 -0.818 -0.668 -0.669 -0.678 -0.754 -0.746 -0.738 -0.731 -0.723 -0.585 -0.565 -0.562 -0.562 -0.578 -0.708 -0.743 -0.652 -0.707 -0.704 -0.888 -0.844 -0.897 -0.908 -0.893 -1.022 -1.028 -1.035 -1.042 -1.048 -1.055 -1.062 -1.068 -1.075 -1.081 -1.088 -1.095 -1.101 -1.108 -1.115 -1.121 -1.128 -1.135 -1.141 -1.148 -1.155 -1.161 -1.168 -1.175 -1.181 -1.188 -1.195 -1.201 -1.177 -1.127 -1.038 -0.95 -0.861 -0.795 -0.757 -0.759 -0.761 -0.763 -0.765 -0.767 -0.777 -0.788 -0.799 -0.809 -0.82 -0.831 -0.842 -0.853 -0.864 -0.874 -0.885 -0.896 -0.907 -0.918 -1.026 -1.046 -0.993 -0.94 -0.894 -0.899 -0.904 -0.909 -0.914 -0.919 -0.924 -0.929 -0.933 -0.938 -0.943 -0.948 -0.948 -0.941 -0.932 -0.923 -0.914 -0.906 -0.897 -0.892 -0.896 -0.9 -0.904 -0.908 -0.912 -0.916 -0.92 -0.924 -0.928 -0.932 -0.936 -0.94 -0.944 -0.948 -0.952 -0.956 -0.96 -0.964 -0.968 -0.972 -0.976 -0.98 -0.984 -0.988 -0.992 -0.996 -1 -1.004 -1.008 -1.012 -1.016 -1.02 -1.024 -1.028 -1.032 -1.036 -1.04 -1.044 -1.048 -1.052 -1.054 -1.054 -1.053 -1.053 -1.053 -1.05 -1.025 -0.997 -0.96 -0.922 -0.885 -0.848 -0.811 -0.774 -0.737 -0.699 -0.688 -0.692 -0.695 -0.698 -0.701 -0.705 -0.708 -0.711 -0.715 -0.718 -0.721 -0.725 -0.728 -0.731 -0.735 -0.738 -0.741 -0.745 -0.748 -0.751 -0.755 -0.758 -0.761 -0.764 -0.768 -0.771 -0.774 -0.787 -0.798 -0.798 -0.798 -0.799 -0.805 -0.817 -0.833 -0.854 -0.874 -0.895 -0.916 -0.937 -0.957 -0.978 -0.999 -1.019 -1.04 -1.061 -1.081 -1.102 -1.123 -1.144 -1.164 -1.185
-0.833 -0.934 -1.051 -1.147 -0.831 -0.826 -0.926 -1.063 -1.067 -1.166 -1.26 -1.287 -1.1 -1.111 -1.02 -1.064 -1.12 -1.133 -1.121 -1.124 -1.09 -0.94 -0.972 -0.754 -0.767 -0.768 -0.762 -0.735 -0.698 -0.575 -1.001 -0.869 -0.893 -0.889 -0.9 -0.796 -1.053 -1.135 -1.192 -1.15 -1.251 -1.25 -1.294 -1.331 -1.344 -1.274 -1.107 -0.978 -1.144 -1.155 -1.133 -1.029 -1.046 -1.038 -0.992 -0.99 -0.883 -0.917 -0.858 -0.924 -1.106 -1.091 -0.868 -0.784 -0.729 -0.747 -1.103 -1.038 -1.098 -1.077 -1.087 -1.091 -1.091 -0.995 -1.016 -1.075 -1.161 -1.311 -1.416 -1.412 -1.251 -1.22 -1.247 -1.255 -1.243 -1.229 -1.218 -1.246 -1.292 -1.4 -1.352 -1.271 -1.196 -1.079 -1.027 -0.966 -0.994 -0.948 -0.901 -0.866 -0.778 -0.78 -0.892 -0.931 -0.913 -0.958 -0.998 -0.777 -0.774 -0.753 -0.736 -0.85 -0.814 -0.818 -0.8 -0.801 -0.785 -0.809 -0.696 -0.73 -0.745 -0.715 -0.794 -0.956 -1.018 -1.011 -1.018 -1.136 -1.201 -1.01 -0.788 -0.765 -0.833 -1.032 -1.132 -1.253 -1.22 -1.094 -1.024 -0.994 -0.957 -0.84 -0.642 -0.561 -0.681 -0.997 -1.082 -1.166 -1.227 -1.149 -0.861 -0.941 -0.981 -0.944 -0.82 -0.807 -0.84 -0.876 -0.88 -0.912 -0.99 -1.063 -1.171 -1.205 -1.122 -1.096 -1.092 -1.102 -1.098 -1.225 -1.058 -1.05 -1.057 -1.13 -1.125 -1.027 -1.044 -1.049 -1.028 -0.989 -1.162 -1.157 -1.213 -1.237 -1.213 -1.189 -1.115 -1.042 -0.862 -0.864 -0.911 -1.165 -1.136 -1.122 -1.165 -1.213 -1.244 -1.46 -1.423 -1.441 -1.441 -1.432 -1.419 -1.405 -1.39 -1.375 -1.36 -1.345 -1.331 -1.316 -1.301 -1.286 -1.271 -1.258 -1.244 -1.23 -1.208 -1.184 -1.16 -1.135 -0.982 -1.006 -1.016 -0.828 -0.645 -0.598 -0.656 -0.777 -0.755 -0.732 -0.717 -0.71 -0.703 -0.58 -0.567 -0.564 -0.562 -0.572 -0.602 -0.625 -0.674 -0.698 -0.871 -0.828 -0.885 -0.902 -0.888 -1.014 -1.026 -1.038 -1.05 -1.062 -1.074 -1.087 -1.098 -1.105 -1.112 -1.118 -1.125 -1.132 -1.138 -1.145 -1.152 -1.158 -1.165 -1.172 -1.178 -1.185 -1.192 -1.198 -1.205 -1.212 -1.218 -1.225 -1.227 -1.2 -1.137 -1.049 -0.96 -0.872 -0.799 -0.745 -0.745 -0.747 -0.749 -0.751 -0.753 -0.755 -0.765 -0.776 -0.787 -0.798 -0.809 -0.819 -0.83 -0.841 -0.852 -0.863 -0.874 -0.884 -0.94 -1.058 -1.018 -0.965 -0.911 -0.905 -0.91 -0.915 -0.92 -0.925 -0.929 -0.934 -0.939 -0.944 -0.949 -0.954 -0.959 -0.964 -0.961 -0.954 -0.945 -0.936 -0.928 -0.919 -0.91 -0.901 -0.9 -0.904 -0.908 -0.912 -0.916 -0.92 -0.924 -0.928 -0.932 -0.936 -0.94 -0.944 -0.948 -0.952 -0.956 -0.96 -0.964 -0.968 -0.972 -0.976 -0.98 -0.984 -0.988 -0.992 -0.996 -1 -1.004 -1.008 -1.012 -1.016 -1.02 -1.024 -1.028 -1.032 -1.036 -1.04 -1.044 -1.048 -1.052 -1.054 -1.054 -1.054 -1.053 -1.06 -1.04 -1.016 -0.981 -0.944 -0.907 -0.869 -0.832 -0.795 -0.758 -0.721 -0.685 -0.688 -0.692 -0.695 -0.698 -0.702 -0.705 -0.708 -0.712 -0.715 -0.718 -0.721 -0.725 -0.728 -0.731 -0.735 -0.738 -0.741 -0.745 -0.748 -0.751 -0.755 -0.758 -0.761 -0.765 -0.768 -0.771 -0.775 -0.787 -0.797 -0.798 -0.798 -0.798 -0.809 -0.821 -0.842 -0.862 -0.883 -0.904 -0.925 -0.945 -0.966 -0.987 -1.007 -1.028 -1.049 -1.069 -1.09 -1.111 -1.132 -1.152 -1.173 -1.194
-0.83 -0.932 -1.065 -1.179 -1.062 -0.814 -0.874 -0.939 -1.009 -1.157 -1.266 -1.301 -1.254 -1.156 -1.121 -1.093 -1.142 -1.143 -1.134 -1.108 -1.038 -1.013 -0.787 -0.697 -0.703 -0.74 -0.729 -0.691 -0.723 -0.716 -0.633 -0.794 -0.866 -0.913 -0.866 -0.767 -0.992 -1.077 -1.182 -1.415 -1.372 -1.224 -1.193 -1.252 -1.26 -1.154 -1.123 -1.048 -1.098 -1.131 -1.257 -1.184 -1.039 -0.934 -0.937 -0.952 -0.87 -0.834 -0.806 -0.854 -1.177 -1.161 -1.011 -0.855 -0.62 -0.613 -0.847 -0.991 -1.074 -1.078 -1.085 -1.093 -1.079 -0.994 -0.973 -1.004 -1.139 -1.277 -1.459 -1.455 -1.315 -1.122 -1.275 -1.262 -1.272 -1.245 -1.232 -1.279 -1.285 -1.29 -1.277 -1.26 -1.144 -1.009 -1.039 -1.139 -1.029 -1.041 -1 -0.903 -0.847 -0.848 -1.044 -0.922 -1.052 -0.97 -0.764 -0.775 -0.817 -0.757 -0.699 -0.774 -0.787 -0.803 -0.83 -0.853 -0.859 -0.811 -0.659 -0.735 -0.902 -0.871 -0.857 -0.923 -1.009 -1.016 -1.004 -0.999 -1.131 -0.981 -0.773 -0.63 -0.568 -1.012 -1.006 -1.088 -1.197 -1.079 -1.035 -0.941 -0.884 -0.75 -0.544 -0.508 -0.665 -0.845 -1.191 -1.447 -1.413 -0.866 -0.886 -0.937 -0.919 -0.789 -0.748 -0.734 -0.759 -0.818 -0.864 -0.891 -0.933 -1.03 -1.106 -1.142 -1.119 -1.107 -1.113 -1.111 -1.107 -1.094 -1.064 -1.032 -1.023 -0.997 -1.055 -0.962 -0.92 -0.954 -0.97 -1.167 -1.213 -1.158 -1.24 -1.262 -1.203 -1.194 -1.121 -1.047 -0.852 -0.816 -0.791 -0.886 -1.038 -1.138 -1.142 -1.085 -1.11 -1.195 -1.232 -1.232 -1.239 -1.238 -1.381 -1.367 -1.352 -1.337 -1.322 -1.307 -1.293 -1.278 -1.263 -1.248 -1.233 -1.219 -1.205 -1.191 -1.169 -1.144 -1.12 -1.095 -0.971 -0.988 -0.988 -0.84 -0.68 -0.616 -0.69 -0.829 -0.789 -0.784 -0.762 -0.74 -0.718 -0.696 -0.574 -0.558 -0.54 -0.535 -0.602 -0.618 -0.645 -0.8 -0.845 -0.892 -0.939 -0.954 -0.975 -0.992 -1.008 -1.021 -1.032 -1.044 -1.056 -1.068 -1.08 -1.092 -1.104 -1.115 -1.127 -1.139 -1.152 -1.165 -1.178 -1.189 -1.195 -1.202 -1.209 -1.215 -1.222 -1.229 -1.235 -1.242 -1.182 -1.177 -1.162 -1.13 -1.148 -1.059 -0.971 -0.882 -0.804 -0.749 -0.731 -0.733 -0.735 -0.737 -0.739 -0.74 -0.743 -0.754 -0.764 -0.775 -0.786 -0.797 -0.808 -0.819 -0.829 -0.84 -0.851 -0.862 -0.973 -1.043 -0.99 -0.937 -0.911 -0.916 -0.921 -0.925 -0.93 -0.935 -0.94 -0.945 -0.95 -0.955 -0.96 -0.964 -0.969 -0.974 -0.979 -0.975 -0.967 -0.958 -0.949 -0.941 -0.932 -0.923 -0.914 -0.906 -0.908 -0.912 -0.916 -0.92 -0.925 -0.929 -0.933 -0.937 -0.941 -0.945 -0.949 -0.953 -0.957 -0.961 -0.965 -0.969 -0.973 -0.977 -0.981 -0.985 -0.989 -0.993 -0.997 -1.001 -1.005 -1.009 -1.013 -1.017 -1.021 -1.025 -1.029 -1.033 -1.037 -1.041 -1.045 -1.049 -1.053 -1.054 -1.054 -1.054 -1.053 -1.055 -1.031 -1.002 -0.965 -0.928 -0.891 -0.854 -0.816 -0.779 -0.742 -0.705 -0.685 -0.688 -0.692 -0.695 -0.698 -0.702 -0.705 -0.708 -0.712 -0.715 -0.718 -0.722 -0.725 -0.728 -0.732 -0.735 -0.738 -0.741 -0.745 -0.748 -0.751 -0.755 -0.758 -0.761 -0.765 -0.768 -0.771 -0.775 -0.788 -0.797 -0.797 -0.798 -0.801 -0.813 -0.83 -0.85 -0.871 -0.892 -0.913 -0.933 -0.954 -0.975 -0.995 -1.016 -1.037 -1.057 -1.078 -1.099 -1.12 -1.14 -1.161 -1.182 -1.203
-0.779 -0.96 -1.069 -1.031 -0.919 -0.752 -0.845 -0.923 -0.969 -1.101 -1.248 -1.277 -1.259 -1.19 -1.16 -1.036 -1.23 -1.209 -1.059 -1.02 -0.943 -0.892 -0.758 -0.621 -0.644 -0.745 -0.761 -0.747 -0.809 -0.79 -0.763 -0.782 -0.855 -0.862 -0.878 -0.891 -1.036 -1.102 -1.202 -1.435 -1.427 -1.135 -1.205 -1.195 -1.185 -1.114 -1.094 -1.142 -1.135 -1.129 -1.154 -1.107 -0.964 -0.893 -0.831 -0.835 -0.844 -0.83 -0.814 -0.93 -1.206 -1.121 -1.158 -1.042 -0.689 -0.705 -0.878 -1.096 -1.073 -1.074 -1.078 -1.09 -1.081 -0.995 -0.853 -0.938 -1.143 -1.287 -1.387 -1.454 -1.482 -1.225 -1.298 -1.288 -1.277 -1.298 -1.311 -1.311 -1.303 -1.287 -1.225 -1.193 -1.051 -0.954 -0.956 -1.151 -1.101 -1.163 -1.111 -1.098 -1.052 -0.967 -1.079 -1.165 -1.085 -1.003 -0.751 -0.738 -0.703 -0.652 -0.685 -0.757 -0.77 -0.797 -0.867 -0.873 -0.882 -0.898 -0.904 -0.86 -0.91 -0.902 -0.873 -0.881 -1.067 -1.104 -1.022 -0.991 -1.004 -1.02 -0.856 -0.677 -0.763 -0.949 -1.233 -1.101 -1.154 -1.128 -0.961 -0.839 -0.823 -0.697 -0.541 -0.521 -0.637 -0.919 -1.228 -1.387 -1.349 -0.814 -0.905 -0.938 -0.807 -0.757 -0.686 -0.706 -0.711 -0.761 -0.816 -0.886 -0.922 -1.023 -1.074 -1.101 -1.103 -1.101 -1.102 -1.115 -1.121 -1.112 -1.061 -1.033 -0.989 -0.933 -0.975 -0.93 -0.879 -0.915 -0.949 -0.954 -1.155 -1.203 -1.168 -1.184 -1.147 -1.19 -1.017 -0.936 -0.847 -0.782 -0.786 -0.85 -0.952 -1.121 -1.209 -1.107 -1.145 -1.162 -1.155 -1.173 -1.263 -1.234 -1.344 -1.329 -1.314 -1.299 -1.284 -1.27 -1.255 -1.24 -1.225 -1.21 -1.196 -1.181 -1.167 -1.153 -1.129 -1.104 -1.08 -1.09 -1.131 -1.187 -1.19 -1.022 -0.918 -0.881 -0.843 -0.803 -0.8 -0.79 -0.814 -0.792 -0.769 -0.734 -0.695 -0.556 -0.524 -0.519 -0.582 -0.613 -0.628 -0.775 -0.822 -0.868 -0.915 -0.927 -0.948 -0.967 -0.984 -1 -1.015 -1.027 -1.038 -1.05 -1.062 -1.074 -1.086 -1.098 -1.11 -1.121 -1.133 -1.145 -1.157 -1.169 -1.181 -1.193 -1.204 -1.217 -1.23 -1.243 -1.256 -1.269 -1.18 -1.19 -1.189 -1.147 -1.158 -1.07 -0.981 -0.893 -0.808 -0.753 -0.716 -0.718 -0.72 -0.722 -0.724 -0.726 -0.728 -0.731 -0.742 -0.753 -0.764 -0.774 -0.785 -0.796 -0.807 -0.818 -0.829 -0.887 -1.005 -1.015 -0.962 -0.917 -0.921 -0.926 -0.931 -0.936 -0.941 -0.946 -0.951 -0.956 -0.961 -0.965 -0.97 -0.975 -0.98 -0.985 -0.99 -0.993 -0.988 -0.98 -0.971 -0.962 -0.954 -0.945 -0.936 -0.928 -0.919 -0.913 -0.917 -0.921 -0.925 -0.929 -0.933 -0.937 -0.941 -0.945 -0.949 -0.953 -0.957 -0.961 -0.965 -0.969 -0.973 -0.977 -0.981 -0.985 -0.989 -0.993 -0.997 -1.001 -1.005 -1.009 -1.013 -1.017 -1.021 -1.025 -1.029 -1.033 -1.037 -1.041 -1.045 -1.049 -1.053 -1.055 -1.054 -1.054 -1.053 -1.046 -1.022 -0.986 -0.949 -0.912 -0.875 -0.838 -0.801 -0.763 -0.726 -0.689 -0.685 -0.688 -0.692 -0.695 -0.698 -0.702 -0.705 -0.708 -0.712 -0.715 -0.718 -0.722 -0.725 -0.728 -0.732 -0.735 -0.738 -0.742 -0.745 -0.748 -0.752 -0.755 -0.758 -0.761 -0.765 -0.768 -0.771 -0.775 -0.788 -0.796 -0.797 -0.797 -0.805 -0.818 -0.838 -0.859 -0.88 -0.901 -0.921 -0.942 -0.963 -0.983 -1.004 -1.025 -1.045 -1.066 -1.087 -1.107 -1.128 -1.149 -1.17 -1.19 -1.211
-0.752 -0.865 -0.979 -0.943 -0.875 -0.808 -0.871 -0.9 -0.991 -1.092 -1.289 -1.284 -1.255 -1.241 -1.171 -1.189 -1.192 -1.152 -1.006 -0.977 -0.882 -0.915 -0.811 -0.698 -0.736 -0.812 -0.89 -0.872 -0.842 -0.879 -0.767 -0.745 -0.825 -0.798 -0.938 -0.97 -1.065 -1.177 -1.207 -1.297 -1.39 -1.276 -1.274 -1.23 -1.216 -1.154 -1.078 -0.999 -0.947 -0.949 -0.992 -1.054 -0.986 -0.928 -0.936 -0.936 -0.898 -0.834 -0.868 -0.976 -1.053 -1.15 -0.932 -0.961 -0.883 -0.892 -1.02 -1.069 -1.176 -1.096 -1.068 -1.079 -1.069 -0.998 -0.949 -1.024 -1.058 -1.313 -1.241 -1.33 -1.352 -1.265 -1.275 -1.266 -1.277 -1.329 -1.387 -1.383 -1.315 -1.294 -1.211 -1.192 -1.021 -0.854 -0.881 -1.034 -1.144 -1.197 -1.155 -1.12 -1.081 -1.159 -1.113 -1.199 -1.119 -1.036 -0.954 -0.705 -0.676 -0.685 -0.712 -0.722 -0.744 -0.779 -0.862 -0.954 -0.985 -0.972 -1 -0.954 -1.004 -0.954 -0.86 -0.861 -1.26 -1.245 -1.09 -1.158 -1.08 -0.887 -0.822 -0.729 -0.899 -1.1 -1.377 -1.372 -1.305 -1.202 -1.049 -0.924 -0.83 -0.664 -0.527 -0.538 -0.512 -0.632 -1.108 -1.256 -1.398 -1.144 -0.859 -0.856 -0.75 -0.69 -0.529 -0.58 -0.667 -0.741 -0.78 -0.862 -0.942 -0.999 -1.079 -1.094 -1.083 -1.075 -1.086 -1.132 -1.15 -1.118 -1.184 -1.043 -1.01 -0.945 -0.995 -1.01 -0.956 -0.943 -0.943 -0.937 -1.111 -1.045 -1.08 -1.091 -1.08 -1.063 -0.996 -0.949 -0.902 -0.811 -0.815 -0.822 -0.905 -1.2 -1.295 -1.313 -1.212 -1.157 -1.106 -1.116 -1.228 -1.206 -1.307 -1.291 -1.276 -1.261 -1.246 -1.232 -1.217 -1.202 -1.187 -1.172 -1.158 -1.143 -0.995 -0.996 -1.089 -1.064 -1.109 -1.153 -1.191 -1.236 -1.256 -1.089 -1.032 -0.995 -0.949 -0.82 -0.813 -0.814 -0.787 -0.834 -0.795 -0.764 -0.734 -0.711 -0.548 -0.549 -0.651 -0.687 -0.724 -0.752 -0.798 -0.845 -0.88 -0.901 -0.921 -0.942 -0.959 -0.975 -0.992 -1.008 -1.021 -1.033 -1.045 -1.056 -1.068 -1.08 -1.092 -1.104 -1.116 -1.128 -1.139 -1.151 -1.163 -1.175 -1.187 -1.199 -1.211 -1.222 -1.234 -1.246 -1.162 -1.17 -1.178 -1.129 -1.169 -1.08 -0.992 -0.904 -0.815 -0.758 -0.703 -0.704 -0.706 -0.708 -0.71 -0.712 -0.714 -0.716 -0.719 -0.73 -0.741 -0.752 -0.763 -0.774 -0.784 -0.795 -0.806 -0.919 -1.037 -0.987 -0.934 -0.927 -0.932 -0.937 -0.942 -0.947 -0.952 -0.957 -0.961 -0.966 -0.971 -0.976 -0.981 -0.986 -0.991 -0.996 -1 -0.916 -0.913 -0.915 -0.909 -0.984 -0.976 -0.967 -0.958 -0.949 -0.941 -0.932 -0.923 -0.921 -0.925 -0.929 -0.933 -0.937 -0.941 -0.945 -0.949 -0.953 -0.957 -0.961 -0.965 -0.969 -0.973 -0.977 -0.981 -0.985 -0.989 -0.993 -0.997 -1.001 -1.005 -1.009 -1.013 -1.017 -1.021 -1.025 -1.029 -1.033 -1.037 -1.041 -1.045 -1.049 -1.053 -1.055 -1.054 -1.054 -1.061 -1.037 -1.008 -0.97 -0.933 -0.896 -0.859 -0.822 -0.785 -0.747 -0.71 -0.682 -0.685 -0.688 -0.692 -0.695 -0.699 -0.702 -0.705 -0.709 -0.712 -0.715 -0.718 -0.722 -0.725 -0.728 -0.732 -0.735 -0.738 -0.742 -0.745 -0.748 -0.752 -0.755 -0.758 -0.762 -0.765 -0.768 -0.772 -0.775 -0.789 -0.796 -0.796 -0.797 -0.809 -0.826 -0.847 -0.868 -0.889 -0.909 -0.93 -0.951 -0.971 -0.992 -1.013 -1.033 -1.054 -1.075 -1.095 -1.116 -1.137 -1.158 -1.178 -1.199 -1.22
-0.824 -0.912 -0.961 -0.906 -0.895 -0.852 -0.934 -0.912 -0.975 -0.996 -1.122 -1.22 -1.28 -1.325 -1.398 -1.334 -1.243 -1.113 -0.943 -0.847 -0.825 -0.955 -0.849 -0.846 -0.811 -0.809 -0.894 -0.926 -0.949 -0.955 -0.845 -0.76 -0.732 -0.709 -0.793 -0.953 -1.1 -1.214 -1.223 -1.281 -1.325 -1.336 -1.326 -1.326 -1.272 -1.221 -1.022 -0.93 -0.831 -0.812 -0.909 -1.089 -1.128 -1.059 -1.087 -1.048 -0.971 -0.915 -0.96 -1.063 -1.003 -0.861 -0.899 -1.073 -0.993 -1.009 -1.11 -1.123 -1.152 -1.185 -1.07 -1.12 -1.137 -0.996 -0.963 -0.991 -1.093 -1.137 -1.112 -1.146 -1.216 -1.188 -1.168 -1.268 -1.23 -1.298 -1.407 -1.409 -1.317 -1.297 -1.264 -1.273 -1.071 -0.902 -0.948 -1.125 -1.124 -1.182 -1.161 -1.146 -1.24 -1.613 -1.182 -1.174 -1.152 -1.074 -1.007 -0.939 -0.72 -0.743 -0.773 -0.764 -0.728 -0.693 -0.882 -0.986 -0.997 -1.004 -0.972 -0.962 -1.016 -0.944 -0.888 -0.983 -1.212 -1.197 -1.219 -1.141 -1.063 -0.985 -0.807 -0.785 -0.957 -1.173 -1.449 -1.414 -1.345 -1.32 -1.219 -1.154 -1.089 -0.764 -0.654 -0.603 -0.497 -0.523 -1.017 -1.226 -1.346 -1.239 -1.098 -0.886 -0.84 -0.784 -0.679 -0.558 -0.673 -0.737 -0.776 -0.809 -0.896 -0.988 -1.067 -1.075 -1.078 -1.058 -1.026 -1.139 -1.181 -1.111 -1.066 -1.06 -1.113 -1.097 -1.149 -1.131 -1.054 -0.912 -0.86 -0.9 -1.067 -0.981 -1.072 -1.089 -1.038 -1.036 -1.015 -0.964 -0.954 -0.9 -0.846 -0.857 -1.039 -1.303 -1.348 -1.308 -1.252 -1.218 -1.143 -1.14 -1.213 -1.286 -1.271 -1.256 -1.241 -1.225 -1.21 -1.195 -1.18 -1.165 -1.149 -1.134 -1.12 -0.989 -0.966 -0.963 -1.001 -1.127 -1.174 -1.213 -1.252 -1.29 -1.203 -1.184 -1.146 -1.109 -1.043 -0.934 -0.813 -0.833 -0.903 -0.872 -0.842 -0.812 -0.787 -0.766 -0.744 -0.723 -0.702 -0.683 -0.719 -0.737 -0.775 -0.821 -0.853 -0.874 -0.895 -0.915 -0.934 -0.951 -0.967 -0.984 -1 -1.015 -1.027 -1.039 -1.051 -1.063 -1.074 -1.086 -1.098 -1.11 -1.122 -1.134 -1.146 -1.157 -1.169 -1.181 -1.193 -1.205 -1.217 -1.229 -1.237 -1.229 -1.211 -1.09 -1.02 -0.983 -1.003 -0.914 -0.826 -0.762 -0.708 -0.69 -0.691 -0.693 -0.695 -0.697 -0.699 -0.701 -0.703 -0.708 -0.719 -0.729 -0.74 -0.751 -0.762 -0.773 -0.834 -0.952 -1.012 -0.959 -0.933 -0.938 -0.943 -0.948 -0.953 -0.957 -0.962 -0.967 -0.972 -0.977 -0.982 -0.987 -0.992 -0.996 -1.001 -1.006 -1.011 -0.916 -0.922 -0.922 -0.915 -1.006 -0.997 -0.989 -0.98 -0.971 -0.962 -0.954 -0.945 -0.936 -0.928 -0.929 -0.933 -0.937 -0.941 -0.945 -0.949 -0.953 -0.957 -0.961 -0.965 -0.969 -0.973 -0.977 -0.981 -0.985 -0.989 -0.993 -0.997 -1.001 -1.005 -1.009 -1.013 -1.017 -1.021 -1.025 -1.029 -1.033 -1.037 -1.041 -1.045 -1.049 -1.053 -1.055 -1.054 -1.054 -1.052 -1.027 -0.992 -0.955 -0.917 -0.88 -0.843 -0.806 -0.769 -0.732 -0.694 -0.682 -0.685 -0.688 -0.692 -0.695 -0.699 -0.702 -0.705 -0.709 -0.712 -0.715 -0.719 -0.722 -0.725 -0.729 -0.732 -0.735 -0.738 -0.742 -0.745 -0.748 -0.752 -0.755 -0.758 -0.762 -0.765 -0.768 -0.772 -0.775 -0.789 -0.796 -0.796 -0.801 -0.814 -0.835 -0.856 -0.877 -0.897 -0.918 -0.939 -0.959 -0.98 -1.001 -1.021 -1.042 -1.063 -1.083 -1.104 -1.125 -1.146 -1.166 -1.187 -1.208 -1.229
-0.9 -0.945 -0.993 -0.985 -0.972 -0.962 -0.951 -0.933 -0.948 -0.983 -1.013 -1.122 -1.322 -1.372 -1.384 -1.344 -1.25 -1.119 -0.845 -0.831 -0.845 -0.946 -0.893 -0.873 -0.864 -0.869 -0.921 -0.935 -0.979 -0.95 -0.981 -0.774 -0.647 -0.605 -0.844 -1.118 -1.275 -1.186 -1.215 -1.263 -1.325 -1.267 -1.246 -1.421 -1.475 -1.314 -1.154 -0.947 -0.823 -0.781 -0.947 -1.075 -1.125 -1.108 -1.058 -1.042 -0.973 -0.937 -1.092 -1.144 -1.062 -0.981 -1.028 -1.085 -1.137 -1.06 -1.107 -1.12 -1.202 -1.233 -1.33 -1.347 -1.187 -1.035 -0.894 -0.973 -1.076 -1.096 -1.101 -1.14 -1.188 -1.157 -1.179 -1.257 -1.254 -1.3 -1.286 -1.32 -1.288 -1.289 -1.321 -1.386 -1.281 -1.125 -1.174 -1.211 -1.248 -1.184 -1.189 -1.179 -1.266 -1.183 -1.183 -1.168 -1.2 -1.133 -1.065 -0.998 -0.93 -0.763 -0.795 -0.792 -0.785 -0.771 -1.033 -1.029 -1 -1.016 -0.954 -0.914 -0.747 -0.713 -0.792 -1.2 -1.082 -1.281 -1.201 -1.124 -1.046 -0.968 -0.93 -0.931 -1.04 -1.123 -1.301 -1.338 -1.329 -1.312 -1.298 -1.233 -0.95 -0.89 -0.917 -0.78 -0.696 -0.665 -0.929 -0.994 -1.033 -1.078 -1.104 -1.149 -1.049 -1.031 -0.882 -0.572 -0.728 -0.809 -0.789 -0.797 -0.833 -0.941 -1.049 -1.078 -1.06 -0.949 -0.895 -1.021 -1.075 -1.035 -1.02 -1.055 -1.112 -1.152 -1.263 -1.31 -1.146 -1.088 -0.903 -0.924 -0.923 -0.901 -1.004 -1.056 -1.044 -1.051 -1.075 -1.084 -1 -0.959 -1.007 -1.066 -1.187 -1.279 -1.314 -1.243 -1.233 -1.219 -1.226 -1.192 -1.157 -1.23 -1.235 -1.22 -1.205 -1.19 -1.175 -1.159 -1.144 -1.129 -1.114 -1.099 -1.083 -0.976 -0.964 -0.957 -1.016 -1.067 -1.235 -1.273 -1.312 -1.263 -1.258 -1.204 -1.249 -1.167 -1.133 -1.077 -0.978 -0.98 -0.95 -0.919 -0.889 -0.863 -0.841 -0.82 -0.799 -0.778 -0.756 -0.735 -0.715 -0.742 -0.751 -0.798 -0.826 -0.847 -0.868 -0.888 -0.909 -0.926 -0.942 -0.959 -0.976 -0.992 -1.009 -1.021 -1.033 -1.045 -1.057 -1.069 -1.081 -1.092 -1.104 -1.116 -1.128 -1.14 -1.152 -1.164 -1.175 -1.187 -1.199 -1.204 -1.197 -1.187 -1.169 -1.05 -1.021 -0.994 -1.013 -0.925 -0.836 -0.767 -0.712 -0.675 -0.677 -0.679 -0.681 -0.683 -0.685 -0.687 -0.689 -0.691 -0.696 -0.707 -0.718 -0.729 -0.739 -0.75 -0.866 -0.984 -0.984 -0.939 -0.944 -0.949 -0.953 -0.958 -0.963 -0.968 -0.973 -0.978 -0.983 -0.988 -0.992 -0.997 -1.002 -1.007 -1.012 -1.017 -1.006 -0.913 -0.917 -0.92 -0.912 -0.98 -0.999 -1.01 -1.002 -0.993 -0.984 -0.975 -0.967 -0.958 -0.95 -0.941 -0.934 -0.938 -0.942 -0.946 -0.95 -0.954 -0.958 -0.962 -0.966 -0.97 -0.974 -0.978 -0.982 -0.986 -0.99 -0.994 -0.998 -1.002 -1.006 -1.01 -1.014 -1.018 -1.022 -1.026 -1.03 -1.034 -1.038 -1.042 -1.046 -1.05 -1.054 -1.055 -1.054 -1.054 -1.042 -1.013 -0.976 -0.939 -0.902 -0.864 -0.827 -0.79 -0.753 -0.716 -0.679 -0.682 -0.685 -0.689 -0.692 -0.695 -0.699 -0.702 -0.705 -0.709 -0.712 -0.715 -0.719 -0.722 -0.725 -0.729 -0.732 -0.735 -0.739 -0.742 -0.745 -0.749 -0.752 -0.755 -0.758 -0.762 -0.765 -0.768 -0.772 -0.775 -0.79 -0.795 -0.796 -0.805 -0.823 -0.844 -0.865 -0.885 -0.906 -0.927 -0.947 -0.968 -0.989 -1.009 -1.03 -1.051 -1.071 -1.092 -1.113 -1.134 -1.154 -1.175 -1.196 -1.216 -1.237
