73.113 73.045 72.915 72.715 72.318 71.91 71.83 71.928 71.708 71.803 72.008 71.97 71.918 71.773 71.628 71.425 71.238 71.19 71.11 71.273 71.085 71.145 71.558 70.628 69.975 69.46 69.045 68.943 68.86 68.77 68.638 68.62 68.475 68.225 67.778 67.678 67.513 67.343 67.47 67.643 67.228 66.835 66.5 66.183 66.21 66.033 65.54 65.298 65.228 65.095 65.015 64.883 64.758 64.66 64.51 64.473 64.275 64.153 64.155 63.568 62.315 61.673 61.633 61.8 61.868 61.755 61.908 61.898 61.72 61.488 61.293 61.035 60.918 60.8 60.633 60.455 60.068 59.783 59.595 59.54 59.448 59.338 59.358 59.163 58.868 58.545 58.413 58.338 58.193 58.058 57.945 57.928 57.853 57.695 57.53 57.44 57.413 57.278 57.198 57.173 57.065 56.828 56.723 56.71 56.62 56.4 56.458 56.385 56.275 56.203 56.115 56.065 55.93 55.823 55.705 55.625 55.495 55.44 55.34 55.245 55.235 55.208 55.185 55.113 55.07 54.96 55 54.943 54.875 54.905 54.868 54.81 54.848 54.798 54.755 54.72 54.67 54.653 54.603 54.555 54.54 54.538 54.553 54.538 54.463 54.488 54.445 54.398 54.418 54.365 54.358 54.348 54.33 54.288 54.213 54.12 53.725 52.625 51.905 51.793 51.88 51.805 51.748 51.728 51.648 51.57 51.965 53.363 54.455 54.81 54.975 55.06 55.1 55.128 55.083 55.015 54.218 52.818 51.435 50.278 50.093 50.03 49.873 49.665 49.568 49.458 49.453 49.42 49.458 49.453 49.4 49.345 49.323 49.253 49.11 48.945 48.853 48.653 48.333 48.11 47.965 47.895 47.645 47.393 47.21 47.18 47.225 47.278 47.28 47.185 47.115 47.08 47.07 47.018 47.008 47.015 47.053 47.063 47.065 47.025 47.055 47.028 46.998 47.03 46.97 46.975 47.015 46.96 46.955 46.953 46.965 46.973 46.998 47.013 46.995 46.985 46.988 46.988 47.028 47.025 46.988 46.97 46.945 46.975 46.98 46.96 46.953 46.92 47 46.998 46.963 46.995 47.005 47.015 47.038 47.04 47.025 47.013 46.983 46.975 46.99 46.955 46.935 46.91 46.93 46.878 46.89 46.868 46.88 46.9 46.948 46.893 46.863 46.908 46.893 46.915 46.878 46.895 46.905 46.885 46.908 46.92 46.9 46.863 46.878 46.9 46.835 46.845 46.853 46.815 46.795 46.823 46.805 46.798 46.833 46.92 46.88 46.868 46.868 46.833 46.703 46.65 46.49 46.655 46.458 46.55 46.64 46.76 46.833 46.8 46.813 46.865 46.918 46.913 46.828 46.773 46.535 46.458 46.695 46.848 46.898 47.003 47.163 47.105 46.49 46.31 46.37 46.42 46.605 46.898 46.97 46.898 46.863 46.79 46.79 46.943 47.038 46.92 46.868 46.928 46.938 46.94 47.008 46.965 46.953 46.95 46.993 47.093 47.165 47.23 47.19 47.285 47.31 47.41 47.925 47.968 47.995 48.018 48.083 48.13 48.175 48.215 48.24 48.058 48.123 48.143 48.158 48.2 48.208 48.173 48.17 48.155 48.043 48.085 48.133 48.268 48.295 48.315 48.443 48.448 48.51 48.58 48.543 48.693 48.678 48.775 48.787 48.79 48.792 48.762 48.76 48.795 48.807 48.985 49.07 49.095 49.085 49.365 49.605 49.58 49.522 49.347 49.347 49.375 49.367 49.42 49.47 49.435 49.48 49.415 49.43 49.405 49.41 49.532 49.662 49.965 50.812 51.265 51.357 51.61 51.802 51.987 52.06 52.13 52.27 52.33 52.395 52.442 52.44 52.462 52.555 52.71 52.817 52.902 52.905 52.945 53.107 53.435 53.75 54.1 54.392
72.8 72.88 72.573 72.345 72.013 71.73 71.755 71.873 71.845 71.73 71.748 71.655 71.64 71.578 71.365 71.135 70.965 70.873 70.635 70.433 70.33 70.288 69.655 69.473 69.328 69.143 68.97 68.84 68.663 68.52 68.333 68.13 67.938 67.705 67.505 67.353 67.25 67.183 67.218 67.178 66.8 66.57 66.388 66.195 66.138 65.958 65.67 65.38 65.253 65.158 65.063 64.958 64.843 64.625 64.565 64.438 64.353 64.26 63.973 62.973 61.868 61.658 61.728 61.82 61.913 61.91 61.985 61.945 61.645 61.508 61.315 61.035 60.87 60.71 60.643 60.508 60.265 59.81 59.508 59.568 59.468 59.508 59.445 59.173 58.95 58.7 58.545 58.43 58.318 58.213 57.985 57.903 57.925 57.855 57.703 57.455 57.245 57.27 57.28 57.238 57.083 56.808 56.683 56.455 56.593 56.52 56.438 56.305 56.308 56.273 56.155 56.08 55.93 55.85 55.725 55.64 55.518 55.448 55.358 55.3 55.278 55.188 55.185 55.12 55.085 55.013 54.988 54.958 54.938 54.923 54.908 54.823 54.81 54.803 54.78 54.7 54.703 54.67 54.648 54.623 54.555 54.558 54.563 54.555 54.505 54.455 54.418 54.438 54.438 54.43 54.415 54.355 54.35 54.315 54.298 54.21 53.913 52.918 52.065 51.963 51.968 51.86 51.788 51.693 51.68 51.54 51.863 53.088 54.31 54.738 54.945 55.068 55.088 55.138 55.103 55.04 54.07 52.643 51.268 50.233 50.02 49.97 49.89 49.64 49.568 49.453 49.47 49.365 49.39 49.405 49.383 49.318 49.3 49.295 49.16 49.038 48.853 48.738 48.48 48.238 47.99 47.938 47.733 47.413 47.278 47.195 47.215 47.27 47.298 47.173 47.128 47.123 47.118 47.103 47.048 47.078 47.093 47.143 47.123 47.073 47.055 47.038 47.033 47.013 46.99 46.968 46.938 46.953 46.958 46.99 46.968 46.993 46.983 46.988 46.988 47.003 46.993 46.97 46.955 47 47.025 46.975 46.94 46.97 46.933 46.968 46.943 46.998 46.978 46.985 47.015 47.02 46.993 46.99 47.045 46.973 47.015 46.993 46.975 46.978 46.983 46.938 46.92 46.975 46.945 46.92 46.913 46.913 46.87 46.935 46.96 46.94 46.903 46.903 46.878 46.875 46.91 46.89 46.878 46.908 46.875 46.883 46.898 46.88 46.878 46.828 46.9 46.858 46.818 46.815 46.778 46.82 46.793 46.775 46.785 46.768 46.803 46.83 46.89 46.91 46.898 46.89 46.895 46.83 46.53 46.39 46.68 46.59 46.528 46.478 46.733 46.828 46.838 46.87 46.825 46.823 46.508 46.403 46.658 46.768 46.843 46.873 47.115 47.22 46.74 46.413 46.415 46.39 46.645 46.96 46.933 46.828 46.83 46.763 46.783 46.87 46.92 46.873 46.863 46.95 46.943 46.918 46.953 46.993 46.965 46.958 46.998 47.078 47.05 47.118 47.195 47.25 47.25 47.368 47.625 47.98 48.023 48.12 48.163 48.183 48.205 48.228 48.2 48.068 48.083 48.1 48.093 48.128 48.173 48.228 48.208 48.085 48.055 48.113 48.183 48.298 48.288 48.373 48.463 48.485 48.49 48.553 48.648 48.715 48.808 48.838 48.845 48.845 48.845 48.845 48.845 48.752 48.89 49.075 49.082 49.082 49.132 49.397 49.622 49.58 49.52 49.302 49.335 49.355 49.41 49.432 49.512 49.337 49.435 49.292 49.45 49.422 49.435 49.52 49.697 49.89 50.435 50.865 51.352 51.645 51.86 51.98 52.137 52.255 52.317 52.375 52.427 52.485 52.45 52.527 52.7 52.822 52.905 52.9 52.9 52.975 53.16 53.615 53.892 54.242 54.517
72.29 72.533 72.33 71.925 71.648 71.58 71.625 71.715 71.688 71.588 71.53 71.41 71.435 71.358 71.138 70.86 70.63 70.423 70.22 70.028 69.858 69.65 69.473 69.195 69.278 69.125 68.97 68.798 68.608 68.36 68.158 67.965 67.868 67.543 67.413 67.158 67.045 66.875 66.745 66.59 66.403 66.275 66.235 66.08 65.953 65.878 65.755 65.673 65.588 65.38 65.185 64.99 64.738 64.545 64.458 64.143 64.273 64.235 63.673 62.185 61.68 61.773 61.8 62.008 61.81 62.043 62.08 61.858 61.645 61.443 61.28 61.035 60.82 60.748 60.61 60.505 59.985 59.853 59.685 59.59 59.593 59.595 59.42 59.193 59.073 58.928 58.763 58.628 58.495 58.363 58.21 58.025 57.918 57.81 57.705 57.583 57.468 57.43 57.28 57.135 56.938 56.868 56.738 56.465 56.47 56.36 56.295 56.153 56.195 56.093 56.04 56.013 55.825 55.76 55.7 55.635 55.55 55.483 55.425 55.358 55.268 55.193 55.198 55.128 55.068 54.978 55.005 55 54.995 54.963 54.91 54.845 54.835 54.823 54.78 54.748 54.708 54.688 54.665 54.643 54.598 54.575 54.563 54.565 54.508 54.475 54.485 54.435 54.448 54.433 54.403 54.373 54.415 54.355 54.285 54.27 54.075 53.28 52.323 52.018 51.913 51.863 51.768 51.638 51.745 51.648 51.675 52.728 54.075 54.708 54.928 55.055 54.968 55.145 55.01 55.023 54.07 52.598 51.203 50.193 50.088 50.005 49.855 49.655 49.515 49.435 49.405 49.355 49.32 49.323 49.323 49.273 49.283 49.305 49.193 49.078 48.92 48.933 48.845 48.34 48.073 47.913 47.815 47.54 47.403 47.198 47.233 47.315 47.235 47.213 47.183 47.165 47.12 47.125 47.085 47.095 47.133 47.123 47.075 47.068 46.995 46.983 47.005 46.963 46.963 46.945 46.958 46.955 46.983 46.958 46.928 46.94 46.955 46.985 46.978 47.003 46.935 46.958 46.98 47.003 46.985 46.963 46.97 46.958 46.983 46.943 46.948 46.963 46.963 46.963 46.98 46.98 46.933 46.96 47.035 46.988 46.983 46.948 46.94 46.935 46.94 46.985 46.968 46.94 46.943 46.945 46.97 46.943 46.923 46.93 46.898 46.883 46.905 46.895 46.868 46.863 46.865 46.865 46.893 46.885 46.87 46.878 46.908 46.885 46.905 46.893 46.883 46.885 46.853 46.813 46.833 46.845 46.83 46.78 46.795 46.785 46.78 46.805 46.838 46.805 46.88 46.933 46.868 46.85 46.823 46.753 46.828 46.715 46.565 46.59 46.575 46.44 46.38 46.34 46.42 46.703 46.535 46.695 46.963 46.803 46.818 46.9 47.045 47.21 47.053 46.623 46.375 46.42 46.51 46.93 46.965 46.855 46.83 46.783 46.798 46.803 46.893 46.888 46.885 46.905 46.965 47.018 46.953 46.96 46.99 46.963 47.015 47.115 47.16 47.208 47.27 47.223 47.225 47.388 47.503 47.975 47.993 48.065 48.138 48.158 48.183 48.185 48.053 48.038 48.065 48.055 48.058 48.115 48.125 48.163 48.16 48.08 48.098 48.138 48.17 48.32 48.343 48.403 48.448 48.503 48.523 48.563 48.665 48.733 48.825 48.835 48.845 48.852 48.835 48.835 48.85 48.78 49.045 49.057 49.082 49.122 49.15 49.23 49.387 49.457 49.35 49.312 49.315 49.382 49.402 49.492 49.512 49.452 49.415 49.247 49.38 49.397 49.46 49.512 49.72 49.92 50.165 50.685 51.187 51.545 51.782 51.92 52.115 52.232 52.33 52.385 52.45 52.512 52.452 52.612 52.76 52.875 52.92 52.9 52.912 53.007 53.267 53.89 54.122 54.33 54.545
71.848 71.948 71.74 71.328 71.483 71.448 71.375 71.62 71.553 71.428 71.395 71.385 71.353 71.15 71.065 70.838 70.565 70.373 70.165 69.94 69.815 69.678 69.523 69.333 69.138 69.02 68.855 68.705 68.545 68.315 68.143 67.905 67.768 67.613 67.358 67.188 67.028 66.79 66.625 66.515 66.383 66.25 66.11 65.933 65.783 65.648 65.623 65.64 65.595 65.52 65.29 65.05 64.875 64.68 64.353 64.358 64.21 63.873 63.258 61.953 61.94 62.003 62.058 62.063 62.065 62.115 62.043 61.855 61.568 61.403 61.173 60.91 60.693 60.495 60.51 60.45 60.033 59.795 59.703 59.678 59.71 59.66 59.445 59.328 59.168 59.048 58.903 58.763 58.63 58.5 58.348 58.088 57.835 57.745 57.723 57.718 57.615 57.518 57.375 57.22 56.843 56.72 56.665 56.343 56.085 55.945 55.873 55.838 55.828 55.733 55.705 55.713 55.695 55.665 55.653 55.635 55.613 55.535 55.46 55.393 55.308 55.243 55.213 55.16 55.08 55.045 55.013 55.025 54.995 54.953 54.9 54.873 54.868 54.84 54.793 54.733 54.688 54.7 54.695 54.64 54.655 54.648 54.568 54.563 54.55 54.535 54.503 54.465 54.495 54.498 54.428 54.38 54.398 54.378 54.368 54.295 54.24 53.793 52.773 52.178 51.973 51.865 51.795 51.7 51.75 51.723 51.595 52.313 53.798 54.623 54.93 55.065 55.103 55.11 55.06 55.01 54.265 52.745 51.273 50.183 50.088 49.973 49.87 49.605 49.49 49.445 49.383 49.34 49.288 49.323 49.265 49.295 49.248 49.208 49.193 49.19 49.14 48.97 49.005 48.49 48.083 47.953 47.74 47.603 47.435 47.255 47.328 47.315 47.285 47.26 47.238 47.145 47.11 47.145 47.138 47.125 47.16 47.155 47.083 47.035 46.993 46.935 46.978 46.925 46.935 46.933 46.905 46.938 46.95 46.935 46.933 46.933 46.938 46.958 46.958 46.998 46.965 46.97 47.038 46.985 47.01 46.933 46.913 46.96 46.918 46.975 46.97 46.948 46.953 46.945 46.97 46.933 46.915 46.975 46.995 46.97 47.003 46.963 46.98 46.95 46.973 46.96 46.928 46.928 46.918 46.938 46.935 46.923 46.925 46.938 46.918 46.888 46.888 46.888 46.843 46.85 46.888 46.87 46.855 46.863 46.865 46.873 46.87 46.845 46.923 46.878 46.865 46.858 46.855 46.858 46.86 46.863 46.85 46.835 46.83 46.775 46.79 46.818 46.82 46.798 46.808 46.81 46.843 46.85 46.815 46.808 46.813 46.825 46.808 46.843 46.845 46.77 46.78 46.635 46.483 46.318 46.043 46.32 46.953 46.855 46.82 46.9 47.025 47.13 47.135 46.628 46.378 46.358 46.438 46.893 46.96 46.898 46.845 46.818 46.833 46.863 46.915 46.883 46.9 46.97 46.96 47.033 46.985 46.978 46.998 47.068 47.108 47.113 47.168 47.27 47.298 47.258 47.353 47.41 47.575 47.925 48.075 48.07 48.09 48.138 48.155 48.088 48.02 47.99 47.983 48.03 48.098 48.09 48.108 48.148 48.18 48.1 48.105 48.193 48.263 48.295 48.335 48.42 48.493 48.488 48.525 48.67 48.66 48.76 48.818 48.823 48.84 48.852 48.865 48.85 48.817 48.81 49.08 49.067 49.11 49.112 49.1 49.187 49.275 49.327 49.32 49.277 49.267 49.472 49.707 49.527 49.52 49.275 49.405 49.262 49.4 49.42 49.445 49.567 49.67 49.905 50.09 50.557 51.057 51.422 51.635 51.855 52.035 52.145 52.31 52.435 52.607 52.507 52.61 52.692 52.825 52.89 52.912 52.87 52.915 53.015 53.635 54.11 54.377 54.337 54.492
71.825 71.725 71.495 71.293 71.38 71.445 71.515 71.47 71.395 71.275 71.275 71.268 71.23 71.173 70.89 70.233 69.393 69.438 69.653 69.823 69.795 69.64 69.45 69.275 69.095 68.925 68.838 68.673 68.485 68.323 68.148 67.953 67.765 67.595 67.39 67.223 67.033 66.833 66.708 66.543 66.398 66.233 66.063 65.89 65.73 65.605 65.503 65.505 65.563 65.523 65.45 65.24 65.17 64.745 64.325 64.348 64.225 63.445 62.45 61.92 61.973 62.028 62.093 62.073 62.145 62.093 62.038 61.738 61.528 61.328 61.125 60.948 60.715 60.64 60.478 60.453 60.205 59.923 59.933 59.728 59.77 59.715 59.545 59.39 59.263 59.183 59.083 58.915 58.735 58.595 58.36 58.113 57.89 57.755 57.705 57.675 57.625 57.603 57.318 57.188 56.948 56.8 56.663 56.155 55.995 55.905 55.875 55.845 55.858 55.83 55.775 55.758 55.713 55.685 55.685 55.623 55.628 55.535 55.475 55.42 55.325 55.24 55.243 55.16 55.123 55.098 55.078 55.068 54.993 54.945 54.87 54.918 54.88 54.865 54.785 54.788 54.765 54.763 54.728 54.693 54.66 54.635 54.565 54.613 54.613 54.54 54.565 54.523 54.51 54.563 54.518 54.448 54.44 54.418 54.38 54.345 54.298 54.11 53.3 52.35 51.973 51.948 51.838 51.748 51.688 51.705 51.623 52.24 53.78 54.568 54.925 55.043 55.075 55.128 55.07 54.96 54.055 52.763 51.285 50.2 50.06 50.05 49.888 49.618 49.48 49.43 49.365 49.348 49.313 49.268 49.25 49.238 49.21 49.175 49.128 49.24 49.29 48.995 48.805 48.43 48.123 47.948 47.765 47.568 47.398 47.308 47.24 47.23 47.263 47.245 47.225 47.19 47.115 47.138 47.145 47.105 47.18 47.175 47.108 47.018 46.948 46.913 46.915 46.935 46.948 46.97 46.903 46.92 46.923 46.938 46.933 46.958 46.963 46.915 46.92 46.93 46.958 46.933 47.018 47.028 47.013 46.98 46.943 46.94 46.945 46.925 46.96 46.97 46.943 46.945 46.965 46.925 46.933 46.943 46.955 46.955 47.003 46.98 46.928 46.92 46.908 46.925 46.928 46.973 46.92 46.91 46.933 46.935 46.94 46.92 46.91 46.878 46.883 46.87 46.88 46.905 46.91 46.828 46.87 46.853 46.848 46.87 46.885 46.883 46.913 46.883 46.843 46.843 46.843 46.878 46.835 46.873 46.828 46.79 46.763 46.805 46.815 46.81 46.793 46.8 46.83 46.81 46.783 46.8 46.78 46.823 46.838 46.788 46.815 46.843 46.803 46.863 46.963 46.973 46.723 46.525 46.105 46.175 46.623 46.79 46.795 46.845 46.94 47.075 47.133 46.668 46.388 46.39 46.528 46.83 47.005 46.925 46.818 46.82 46.845 46.85 46.895 46.865 46.918 46.97 46.955 47.005 47.03 47.003 47.02 47.11 47.16 47.148 47.2 47.263 47.298 47.378 47.508 47.523 47.723 48.063 48.085 48.058 48.088 48.118 48.125 48.12 48.045 47.995 47.978 48.058 48.078 48.08 48.133 48.173 48.165 48.078 48.12 48.203 48.285 48.338 48.435 48.58 48.575 48.52 48.563 48.6 48.648 48.813 48.82 48.808 48.835 48.845 48.855 48.867 48.79 48.915 49.08 49.082 49.095 49.11 49.09 49.107 49.175 49.13 49.195 49.312 49.382 49.475 49.685 49.575 49.45 49.387 49.405 49.385 49.412 49.387 49.552 49.63 49.74 49.852 50.132 50.435 50.852 51.142 51.34 51.572 51.81 52.015 52.117 52.412 52.46 52.515 52.665 52.72 52.84 52.91 52.847 52.86 52.932 53.15 53.92 54.23 54.36 54.44 54.46
71.843 71.758 71.54 71.268 71.233 71.338 71.395 71.388 71.28 71.133 71.15 71.103 71 70.71 70.268 69.78 69.235 69.233 69.24 69.505 69.808 69.63 69.463 69.305 69.153 68.975 68.838 68.663 68.503 68.305 68.133 67.955 67.713 67.6 67.268 67.258 67.03 66.808 66.68 66.595 66.428 66.243 66.095 65.93 65.72 65.615 65.545 65.498 65.468 65.485 65.46 65.375 65.08 64.568 64.265 64.098 63.36 62.463 62.02 61.915 62.005 62.125 62.035 62.098 62.215 62.168 62.038 61.733 61.57 61.288 61.1 60.975 60.8 60.68 60.595 60.448 60.183 59.965 59.895 59.848 59.893 59.725 59.55 59.46 59.365 59.21 59.085 58.945 58.803 58.66 58.44 58.188 57.985 57.943 57.82 57.765 57.663 57.505 57.158 57.1 56.985 56.785 56.638 56.138 56.005 55.955 55.88 55.873 55.898 55.868 55.798 55.75 55.728 55.685 55.655 55.623 55.623 55.568 55.448 55.373 55.355 55.283 55.265 55.225 55.138 55.135 55.123 55.085 55.028 55.003 54.945 54.898 54.865 54.875 54.79 54.778 54.8 54.758 54.71 54.715 54.703 54.668 54.638 54.65 54.61 54.605 54.548 54.54 54.573 54.59 54.58 54.48 54.438 54.388 54.433 54.343 54.365 54.24 53.815 52.803 52.065 51.793 51.735 51.725 51.703 51.67 51.625 52.135 53.46 54.54 54.923 55.01 55.06 55.143 55.065 54.933 54.245 52.725 51.218 50.265 50.22 50.115 49.913 49.61 49.498 49.453 49.353 49.293 49.29 49.233 49.238 49.223 49.165 49.143 49.14 49.118 49.14 49.2 48.93 48.63 48.305 47.87 47.733 47.56 47.33 47.255 47.208 47.27 47.293 47.235 47.215 47.19 47.13 47.17 47.168 47.15 47.178 47.145 47.08 47.003 46.888 46.873 46.913 46.983 46.963 46.95 46.955 46.958 46.948 46.893 46.915 46.893 46.923 46.88 46.948 46.938 46.92 46.933 46.968 46.95 46.97 46.943 46.9 46.893 46.915 46.95 46.94 46.93 46.948 46.933 46.928 46.893 46.913 46.905 46.895 46.92 46.933 46.958 46.96 46.915 46.915 46.968 46.95 46.955 46.95 46.96 46.953 46.923 46.918 46.958 46.928 46.915 46.878 46.89 46.888 46.875 46.85 46.875 46.88 46.843 46.885 46.858 46.838 46.823 46.865 46.85 46.84 46.9 46.858 46.883 46.858 46.878 46.82 46.78 46.773 46.795 46.78 46.785 46.793 46.755 46.775 46.8 46.8 46.79 46.77 46.815 46.83 46.745 46.783 46.778 46.738 46.785 46.835 46.778 46.895 46.718 46.263 46.113 46.608 46.74 46.743 46.818 46.935 47.053 47.17 46.77 46.395 46.375 46.343 46.735 47.033 46.965 46.868 46.833 46.818 46.898 46.875 46.903 46.91 46.915 46.938 46.985 47.058 46.97 47.028 47.15 47.2 47.198 47.215 47.258 47.3 47.473 47.533 47.59 47.78 48.058 47.99 48.05 48.103 48.11 48.135 48.11 47.985 48.03 48.05 48.063 48.105 48.085 48.153 48.145 48.145 48.083 48.15 48.223 48.328 48.445 48.565 48.62 48.613 48.573 48.53 48.555 48.603 48.628 48.67 48.753 48.825 48.822 48.85 48.877 48.752 48.995 49.072 49.105 49.08 49.102 49.107 49.105 49.06 49.1 49.105 49.267 49.32 49.277 49.372 49.485 49.422 49.395 49.43 49.37 49.395 49.477 49.56 49.677 49.802 49.93 50.04 50.215 50.487 50.722 51.01 51.277 51.51 51.76 52.087 52.317 52.44 52.505 52.585 52.61 52.865 52.807 52.81 52.882 52.99 53.465 54.172 54.265 54.325 54.417 54.415
71.808 71.743 71.505 71.273 71.048 71.163 71.218 71.21 71.085 70.988 71.145 70.965 70.853 70.723 70.6 69.645 69.105 69.225 69.32 69.298 69.213 69.378 69.455 69.348 69.203 69.055 68.878 68.838 68.728 68.605 68.408 67.765 67.235 66.853 66.965 66.865 66.758 66.74 66.653 66.5 66.368 66.235 66.093 65.848 65.675 65.658 65.588 65.563 65.503 65.525 65.433 65.295 64.805 64.445 64.32 63.808 62.62 62.295 61.968 62.14 62.113 62.125 62.105 62.268 62.293 62.233 62.06 61.85 61.495 61.22 61.073 60.963 60.815 60.668 60.498 60.365 60.1 60.005 60.065 59.873 59.845 59.793 59.698 59.528 59.325 59.21 59.098 58.98 58.845 58.708 58.523 58.325 58.083 57.968 57.865 57.793 57.643 57.47 57.155 57.095 57.048 56.878 56.608 56.118 55.975 55.895 55.898 55.883 55.873 55.835 55.823 55.76 55.743 55.695 55.688 55.653 55.668 55.575 55.513 55.463 55.388 55.323 55.263 55.233 55.185 55.13 55.108 55.063 55.078 55.015 54.953 54.948 54.885 54.86 54.828 54.77 54.763 54.695 54.71 54.698 54.708 54.668 54.635 54.67 54.598 54.6 54.6 54.583 54.6 54.608 54.578 54.575 54.488 54.428 54.418 54.383 54.405 54.35 54.14 53.323 52.253 51.823 51.648 51.688 51.703 51.623 51.613 52.103 53.285 54.44 54.865 54.988 55.053 55.125 55.06 54.893 54.133 52.745 51.21 50.338 50.265 50.105 49.89 49.665 49.48 49.438 49.358 49.313 49.268 49.208 49.188 49.155 49.103 49.098 49.14 49.04 49.043 49.13 48.938 48.84 48.468 47.818 47.665 47.498 47.398 47.265 47.305 47.253 47.325 47.275 47.153 47.193 47.183 47.113 47.115 47.125 47.18 47.178 47.128 47.033 46.96 46.888 46.898 46.955 46.978 46.928 46.935 46.94 46.928 46.918 46.92 46.88 46.91 46.908 46.945 46.918 46.92 46.903 46.868 46.928 46.943 46.935 46.93 46.878 46.905 46.928 46.978 46.93 46.943 46.913 46.915 46.915 46.905 46.893 46.903 46.923 46.935 46.953 46.91 46.895 46.913 46.953 46.94 46.948 46.96 46.935 46.958 46.885 46.965 46.915 46.893 46.938 46.883 46.92 46.88 46.888 46.885 46.873 46.895 46.865 46.82 46.873 46.868 46.843 46.88 46.87 46.853 46.878 46.868 46.845 46.823 46.883 46.82 46.815 46.853 46.803 46.788 46.798 46.79 46.773 46.793 46.76 46.785 46.788 46.798 46.788 46.8 46.763 46.728 46.728 46.7 46.725 46.758 46.745 46.788 46.883 46.573 46.293 46.665 46.785 46.795 46.86 46.993 47.09 47.158 46.928 46.38 46.358 46.4 46.628 46.92 47.098 47.053 46.893 46.863 46.895 46.853 46.89 46.905 46.925 46.953 46.973 47.05 47.01 47.075 47.145 47.183 47.255 47.27 47.265 47.373 47.493 47.558 47.64 47.765 47.92 47.978 48.028 48.203 48.148 48.183 48.133 48.065 48.078 48.14 48.118 48.113 48.17 48.153 48.178 48.18 48.098 48.148 48.208 48.278 48.47 48.528 48.538 48.525 48.578 48.553 48.57 48.598 48.583 48.515 48.588 48.655 48.737 48.84 48.792 48.757 48.742 48.782 48.862 49.027 49.067 49.055 49.095 49.095 49.145 49.15 49.152 49.185 49.205 49.282 49.44 49.27 49.402 49.425 49.39 49.385 49.482 49.555 49.667 49.812 49.96 50.092 50.225 50.415 50.595 50.78 50.987 51.207 51.495 51.825 52.142 52.237 52.327 52.475 52.595 52.67 52.672 52.792 52.885 53.1 53.827 54.262 54.34 54.327 54.362 54.375
71.75 71.71 71.555 71.22 70.915 71.023 70.995 70.88 70.93 70.98 71.06 70.915 70.765 70.595 70.278 69.223 69.295 69.305 69.315 69.29 69.268 69.258 69.243 69.24 69.218 69.173 69.093 69.02 68.935 68.795 68.395 67.628 66.875 66.753 66.79 66.775 66.76 66.748 66.725 66.6 66.483 66.278 66.033 65.785 65.648 65.655 65.608 65.513 65.475 65.505 65.533 65.218 64.62 64.423 64.035 63.005 62.39 62.255 62.153 62.145 62.305 62.12 62.155 62.423 62.285 62.08 61.923 61.723 61.583 61.248 61.075 60.943 60.793 60.638 60.47 60.353 60.193 60.14 60.118 60.158 59.803 59.8 59.7 59.543 59.22 59.198 59.093 58.98 58.87 58.733 58.538 58.398 58.185 58.018 57.92 57.84 57.628 57.445 57.223 57.138 57.033 56.938 56.505 56.025 55.975 55.935 55.92 55.893 55.873 55.81 55.818 55.808 55.758 55.693 55.7 55.66 55.635 55.6 55.538 55.515 55.43 55.36 55.345 55.265 55.228 55.16 55.165 55.133 55.065 55.07 55.023 54.98 54.91 54.875 54.853 54.795 54.783 54.75 54.708 54.7 54.703 54.723 54.685 54.68 54.645 54.635 54.628 54.645 54.638 54.59 54.628 54.538 54.54 54.49 54.458 54.405 54.383 54.37 54.283 53.663 52.723 51.968 51.7 51.623 51.658 51.668 51.603 51.89 53.123 54.318 54.77 54.993 55.065 55.12 55.018 54.898 54.015 52.503 51.06 50.308 50.118 50.078 49.908 49.595 49.473 49.375 49.333 49.248 49.195 49.173 49.15 49.118 49.11 49.09 49.113 49.15 49.15 49.15 49.088 48.898 48.735 48.23 47.793 47.555 47.448 47.305 47.33 47.308 47.328 47.3 47.2 47.173 47.193 47.173 47.138 47.118 47.165 47.17 47.133 47.098 47.058 47.018 46.983 46.99 46.958 46.995 46.945 46.968 46.98 46.98 46.985 46.933 46.92 46.95 46.983 46.925 46.915 46.915 46.893 46.9 46.928 46.93 46.89 46.858 46.885 46.933 46.943 46.958 46.968 46.948 46.97 46.908 46.928 46.895 46.88 46.888 46.89 46.878 46.89 46.91 46.908 46.908 46.913 46.925 46.96 46.978 46.95 46.933 46.915 46.92 46.895 46.893 46.9 46.91 46.888 46.898 46.875 46.895 46.865 46.89 46.848 46.863 46.88 46.84 46.85 46.808 46.843 46.86 46.858 46.843 46.825 46.825 46.8 46.838 46.808 46.79 46.753 46.78 46.76 46.783 46.778 46.775 46.768 46.78 46.805 46.798 46.79 46.785 46.763 46.698 46.7 46.658 46.735 46.745 46.74 46.995 46.73 46.255 46.595 46.858 46.85 46.973 47 47.085 47.168 47.065 46.403 46.445 46.375 46.49 46.888 47.05 47.05 46.908 46.84 47.005 47.008 46.905 46.925 46.89 46.915 46.935 46.995 46.99 47.078 47.14 47.175 47.25 47.313 47.333 47.503 47.538 47.6 47.725 47.75 47.865 47.95 48.105 48.215 48.228 48.205 48.115 48.063 48.118 48.145 48.14 48.145 48.255 48.238 48.153 48.155 48.1 48.155 48.213 48.375 48.443 48.503 48.528 48.52 48.545 48.51 48.5 48.57 48.63 48.69 48.735 48.565 48.627 48.67 48.705 48.68 48.702 48.742 48.76 48.892 49.05 49.12 49.12 49.12 49.127 49.15 49.12 49.17 49.21 49.38 49.44 49.377 49.392 49.387 49.377 49.407 49.585 49.727 49.842 49.985 50.15 50.23 50.345 50.485 50.655 50.832 51.022 51.207 51.38 51.572 51.827 51.972 52.16 52.315 52.442 52.525 52.66 52.79 52.927 53.23 54.092 54.235 54.315 54.337 54.377 54.357
71.75 71.683 71.663 71.55 70.863 70.57 70.768 70.745 70.813 70.88 70.915 70.835 70.728 70.343 69.455 69.353 69.288 69.295 69.303 69.283 69.263 69.315 69.348 69.255 69.203 69.258 69.238 68.925 68.535 68.143 67.745 67.25 66.7 66.743 66.76 66.748 66.733 66.713 66.655 66.615 66.663 66.545 66.153 65.793 65.655 65.63 65.588 65.538 65.455 65.355 65.36 64.818 64.563 64.253 63.29 62.533 62.38 62.235 62.268 62.275 62.363 62.355 62.408 62.465 62.263 62.075 61.918 61.548 61.428 61.335 61.143 60.91 60.75 60.6 60.498 60.335 60.245 60.175 60.223 60.213 59.875 59.808 59.768 59.495 59.173 59.108 59.048 58.935 58.825 58.69 58.565 58.413 58.233 58.085 57.948 57.925 57.683 57.468 57.288 57.178 57.118 56.973 56.333 56.03 55.988 55.975 55.918 55.87 55.885 55.79 55.783 55.798 55.785 55.725 55.725 55.688 55.608 55.573 55.53 55.478 55.483 55.39 55.348 55.3 55.25 55.215 55.18 55.158 55.128 55.128 55.03 55.003 54.908 54.92 54.885 54.835 54.823 54.81 54.775 54.723 54.7 54.718 54.755 54.685 54.723 54.7 54.695 54.653 54.6 54.583 54.575 54.555 54.55 54.535 54.473 54.408 54.428 54.365 54.283 53.933 53.145 52.188 51.75 51.62 51.598 51.698 51.645 51.81 52.98 54.19 54.705 54.988 55.053 55.075 55.045 54.913 53.973 52.54 51.085 50.203 50.128 50.013 49.905 49.648 49.533 49.483 49.378 49.285 49.273 49.2 49.175 49.09 49.105 49.118 49.08 49.088 49.113 49.138 49.148 48.768 48.883 48.495 48.018 47.688 47.55 47.383 47.35 47.315 47.3 47.293 47.17 47.138 47.168 47.198 47.175 47.17 47.138 47.14 47.115 47.105 47.118 47.073 47.02 47.013 47.045 47.013 46.985 46.983 46.983 46.945 46.975 46.955 46.948 46.96 46.955 46.938 46.94 46.88 46.87 46.885 46.875 46.913 46.883 46.845 46.885 46.86 46.91 46.9 46.925 46.938 46.915 46.92 46.91 46.93 46.92 46.898 46.898 46.85 46.845 46.91 46.92 46.915 46.918 46.935 46.95 46.94 46.943 46.92 46.955 46.95 46.923 46.963 46.913 46.938 46.88 46.853 46.823 46.843 46.923 46.863 46.865 46.865 46.86 46.845 46.85 46.813 46.82 46.84 46.843 46.823 46.8 46.78 46.828 46.825 46.81 46.805 46.8 46.775 46.755 46.79 46.765 46.788 46.79 46.773 46.808 46.743 46.745 46.768 46.798 46.773 46.798 46.78 46.75 46.748 46.793 46.858 46.638 45.92 46.653 46.94 46.915 47.008 47.075 47.098 47.123 47.033 46.673 46.408 46.138 46.425 46.965 46.963 46.99 46.883 46.85 46.998 47.073 46.97 46.985 46.905 46.905 46.948 46.93 46.948 47.085 47.175 47.19 47.26 47.323 47.33 47.49 47.6 47.67 47.768 47.825 48.008 48.083 48.213 48.285 48.28 48.295 48.26 48.15 48.058 48.09 48.095 48.115 48.223 48.225 48.233 48.158 48.105 48.158 48.223 48.335 48.425 48.395 48.468 48.503 48.55 48.518 48.53 48.553 48.663 48.705 48.725 48.785 48.775 48.655 48.617 48.635 48.722 48.73 48.79 48.98 49.102 49.135 49.14 49.142 49.145 49.162 49.165 49.165 49.217 49.397 49.402 49.315 49.385 49.385 49.427 49.585 49.765 50.08 50.28 50.485 50.517 50.59 50.737 50.805 50.857 50.967 51.097 51.267 51.455 51.615 51.807 51.95 52.137 52.272 52.402 52.58 52.712 52.835 53.03 53.612 54.13 54.21 54.29 54.355 54.312 54.36
71.695 71.66 71.64 71.663 70.88 70.58 70.598 70.608 70.748 70.733 70.81 70.688 70.565 70.293 69.54 69.435 69.343 69.288 69.293 69.283 69.29 69.278 69.335 69.343 69.285 69.235 69.12 68.685 68.245 67.795 67.348 66.905 66.698 66.665 66.735 66.72 66.685 66.703 66.605 66.638 66.685 66.635 66.53 66.115 65.878 65.66 65.565 65.525 65.473 65.383 65.123 64.753 64.468 63.7 62.723 62.508 62.375 62.298 62.37 62.41 62.423 62.45 62.453 62.498 62.385 62.163 61.86 61.553 61.3 61.35 61.205 60.868 60.68 60.605 60.405 60.378 60.288 60.205 60.363 60.185 59.945 59.813 59.673 59.358 59.225 59.075 58.953 58.885 58.81 58.64 58.58 58.398 58.278 58.125 58.02 57.993 57.605 57.498 57.36 57.248 57.15 56.953 56.2 56.048 56.005 56.013 55.943 55.89 55.935 55.813 55.778 55.788 55.695 55.745 55.723 55.62 55.613 55.535 55.493 55.498 55.46 55.423 55.39 55.355 55.325 55.255 55.238 55.235 55.18 55.145 55.065 54.998 55.033 54.98 54.95 54.913 54.83 54.805 54.765 54.785 54.72 54.753 54.728 54.708 54.725 54.748 54.71 54.655 54.61 54.618 54.59 54.545 54.543 54.498 54.463 54.445 54.36 54.373 54.34 54.123 53.44 52.56 51.878 51.683 51.653 51.78 51.74 51.848 52.76 54.068 54.723 54.983 55.083 55.073 55.07 54.925 53.918 52.64 51.193 50.213 50.088 50.088 49.953 49.698 49.545 49.51 49.388 49.268 49.258 49.155 49.15 49.095 49.098 49.088 49.128 49.058 49.055 49.103 49.04 48.908 48.815 48.713 48.375 47.9 47.635 47.485 47.47 47.39 47.31 47.24 47.183 47.125 47.013 47.06 47.093 47.045 47.078 47.093 47.045 47.023 47.083 47.038 47.013 47.005 47.045 47.135 47.078 47.048 46.99 46.98 46.943 46.918 46.968 46.975 46.968 46.98 46.963 46.883 46.885 46.915 46.913 46.888 46.83 46.82 46.885 46.87 46.918 46.91 46.883 46.905 46.923 46.928 46.968 46.913 46.96 46.913 46.87 46.873 46.87 46.905 46.918 46.905 46.878 46.888 46.93 46.948 46.905 46.905 46.948 46.928 46.918 46.92 46.895 46.88 46.888 46.885 46.918 46.913 46.888 46.853 46.865 46.883 46.85 46.833 46.818 46.81 46.81 46.825 46.828 46.84 46.825 46.8 46.835 46.808 46.785 46.805 46.808 46.813 46.783 46.76 46.775 46.735 46.778 46.733 46.76 46.78 46.738 46.785 46.808 46.83 46.82 46.848 46.81 46.783 46.805 46.855 46.435 45.93 46.568 46.893 46.95 46.98 47.088 47.073 47.14 47.08 46.818 46.423 46.318 46.405 46.888 46.9 46.955 46.885 46.89 46.908 46.955 47.045 46.905 46.968 47.003 47.045 46.995 47.055 47.185 47.195 47.19 47.25 47.308 47.405 47.55 47.683 47.725 47.81 47.913 48.015 48.123 48.17 48.22 48.265 48.288 48.295 48.225 48.18 48.115 48.113 48.128 48.203 48.265 48.198 48.133 48.1 48.155 48.225 48.33 48.435 48.48 48.488 48.45 48.5 48.545 48.553 48.583 48.69 48.72 48.77 48.79 48.787 48.74 48.672 48.74 48.772 48.817 48.825 48.97 49.105 49.152 49.142 49.135 49.162 49.185 49.18 49.242 49.287 49.372 49.385 49.39 49.41 49.405 49.56 49.877 50.172 50.66 50.887 51.082 50.817 50.932 51.162 51.602 51.7 51.567 51.57 51.657 51.7 51.72 51.862 52.032 52.205 52.375 52.507 52.625 52.755 52.885 53.152 53.892 54.067 54.23 54.262 54.317 54.33 54.36
71.695 71.65 71.693 71.805 71.253 70.518 70.66 70.715 70.668 70.583 70.703 70.59 70.513 70.275 69.568 69.288 69.335 69.318 69.285 69.26 69.238 69.293 69.305 69.278 69.215 69.148 68.948 68.735 68.285 67.838 67.395 67.173 66.933 66.73 66.663 66.67 66.68 66.633 66.623 66.658 66.68 66.613 66.495 66.23 66.135 65.915 65.755 65.563 65.47 65.228 64.883 64.698 64.328 63.078 62.633 62.48 62.403 62.39 62.46 62.27 62.373 62.538 62.595 62.485 62.385 62.198 62.01 61.668 61.403 61.448 61.213 60.73 60.65 60.548 60.518 60.458 60.435 60.425 60.378 60.168 59.978 59.845 59.62 59.21 59.31 59.195 59.048 58.903 58.785 58.68 58.558 58.42 58.325 58.275 58.175 57.898 57.648 57.52 57.393 57.248 57.148 56.97 56.135 56.013 56.04 55.985 55.938 55.905 55.893 55.848 55.828 55.85 55.768 55.76 55.733 55.685 55.588 55.533 55.475 55.485 55.435 55.433 55.395 55.383 55.38 55.37 55.298 55.265 55.22 55.21 55.14 55.145 55.118 55.038 55.01 54.963 54.908 54.865 54.78 54.798 54.748 54.748 54.723 54.71 54.683 54.713 54.725 54.695 54.635 54.608 54.568 54.5 54.52 54.5 54.453 54.45 54.39 54.34 54.405 54.328 53.948 52.963 52.095 51.715 51.718 51.71 51.76 51.805 52.653 53.95 54.738 54.963 55.098 55.083 55.058 54.848 53.998 52.583 51.14 50.228 50.04 50.095 49.918 49.678 49.553 49.49 49.47 49.338 49.225 49.203 49.17 49.083 49.085 49.093 49.085 49.045 49.06 49.05 49.058 48.978 48.818 48.563 48.46 48.093 47.763 47.613 47.503 47.405 47.32 47.178 47.163 47.073 46.995 47.028 47.005 46.988 46.963 46.975 46.895 46.89 46.933 46.925 46.958 47.01 47.03 47.098 47.08 47.05 47.045 47.038 47.023 47.005 46.968 46.975 46.95 46.925 46.93 46.905 46.938 46.93 46.898 46.84 46.81 46.883 46.895 46.86 46.88 46.835 46.835 46.903 46.908 46.913 46.895 46.875 46.878 46.905 46.935 46.913 46.913 46.888 46.85 46.885 46.875 46.91 46.895 46.875 46.885 46.918 46.925 46.945 46.955 46.915 46.86 46.893 46.905 46.865 46.888 46.868 46.863 46.863 46.9 46.883 46.828 46.845 46.855 46.835 46.82 46.86 46.833 46.828 46.828 46.82 46.793 46.823 46.805 46.785 46.778 46.778 46.733 46.785 46.74 46.735 46.755 46.715 46.708 46.76 46.728 46.745 46.8 46.78 46.788 46.78 46.77 46.743 46.833 46.82 46.553 46.06 46.443 46.755 46.91 46.968 47.073 47.085 47.115 47.125 46.928 46.403 46.38 46.4 46.665 46.935 46.905 46.875 46.848 46.868 46.915 47.018 47.078 47.068 47.09 47.12 47.14 47.165 47.195 47.228 47.208 47.283 47.323 47.485 47.505 47.595 47.718 47.868 47.963 48.095 48.133 48.168 48.24 48.26 48.28 48.28 48.245 48.195 48.125 48.14 48.23 48.303 48.28 48.223 48.135 48.138 48.153 48.208 48.305 48.308 48.4 48.515 48.553 48.568 48.545 48.558 48.6 48.733 48.748 48.76 48.75 48.745 48.742 48.69 48.765 48.78 48.812 48.88 48.867 48.972 49.032 49.145 49.22 49.295 49.297 49.195 49.22 49.4 49.437 49.382 49.415 49.395 49.497 49.745 50.132 50.48 50.937 51.152 51.262 51.152 51.317 51.57 51.78 51.775 51.792 51.845 51.972 52.075 52.1 52.092 52.08 52.245 52.435 52.565 52.687 52.8 52.965 53.23 53.615 54.007 54.21 54.307 54.357 54.325 54.317
71.718 71.733 71.673 71.805 71.378 70.553 70.533 70.495 70.53 70.375 70.535 70.53 70.423 70.22 69.783 69.368 69.218 69.29 69.265 69.233 69.228 69.278 69.26 69.195 69.135 69.06 68.85 68.65 68.325 67.885 67.463 67.465 67.263 67.335 66.908 66.663 66.668 66.613 66.635 66.64 66.64 66.645 66.485 66.273 66.3 66.145 65.79 65.675 65.335 65.055 64.875 64.718 63.715 62.735 62.598 62.485 62.443 62.493 62.413 62.54 62.31 62.64 62.633 62.525 62.443 62.128 61.923 61.745 61.635 61.408 61.08 60.758 60.713 60.66 60.618 60.523 60.46 60.493 60.358 60.138 59.988 59.81 59.605 59.375 59.298 59.315 59.273 59.125 58.828 58.745 58.628 58.538 58.433 58.353 58.263 57.953 57.698 57.558 57.348 57.235 57.16 56.863 56.103 56.01 56.03 55.985 55.958 55.918 55.91 55.855 55.903 55.838 55.78 55.743 55.743 55.683 55.665 55.605 55.54 55.453 55.443 55.415 55.428 55.393 55.398 55.325 55.318 55.288 55.25 55.193 55.165 55.138 55.11 55.063 55.045 55.03 54.928 54.88 54.835 54.82 54.755 54.8 54.77 54.758 54.718 54.72 54.743 54.713 54.675 54.645 54.613 54.54 54.505 54.488 54.488 54.425 54.365 54.38 54.405 54.418 54.235 53.428 52.47 51.868 51.7 51.743 51.793 51.825 52.583 53.99 54.713 54.98 55.073 55.083 55.048 54.825 54.035 52.83 51.125 50.293 50.195 50.123 49.883 49.71 49.553 49.533 49.433 49.35 49.278 49.23 49.125 49.115 49.04 49.035 49.003 48.973 49.003 49.033 49.108 48.995 48.885 48.778 48.6 48.255 47.913 47.74 47.593 47.445 47.31 47.178 47.15 47.02 46.943 46.96 46.925 46.885 46.9 46.91 46.893 46.875 46.878 46.918 46.878 46.913 46.995 47.013 47.033 47.008 47.033 46.993 47.05 47.053 46.993 46.995 46.985 46.963 46.975 46.93 46.933 46.908 46.895 46.838 46.858 46.875 46.853 46.845 46.863 46.818 46.845 46.87 46.905 46.898 46.89 46.89 46.87 46.883 46.918 46.878 46.9 46.868 46.865 46.875 46.858 46.883 46.838 46.833 46.848 46.89 46.905 46.943 46.918 46.918 46.865 46.87 46.895 46.883 46.918 46.888 46.885 46.87 46.858 46.855 46.853 46.85 46.865 46.818 46.815 46.853 46.798 46.843 46.828 46.803 46.833 46.81 46.813 46.83 46.78 46.755 46.753 46.728 46.735 46.745 46.75 46.73 46.773 46.778 46.798 46.808 46.75 46.755 46.755 46.75 46.743 46.73 46.848 46.82 46.635 46.42 46.525 46.8 46.975 46.998 47.028 47.088 47.07 47.17 47.093 46.605 46.47 46.475 46.558 46.978 46.96 46.88 46.858 46.873 46.908 47.06 47.24 47.223 47.025 47.158 47.188 47.213 47.243 47.29 47.27 47.318 47.375 47.42 47.515 47.595 47.728 47.8 48.018 48.188 48.183 48.158 48.193 48.278 48.275 48.273 48.24 48.128 48.115 48.143 48.238 48.288 48.28 48.23 48.173 48.188 48.15 48.22 48.3 48.288 48.4 48.455 48.538 48.605 48.643 48.695 48.605 48.695 48.715 48.715 48.71 48.7 48.66 48.705 48.712 48.855 48.855 48.867 48.947 49.057 49.075 49.207 49.26 49.3 49.3 49.18 49.222 49.405 49.445 49.412 49.422 49.422 49.522 49.97 50.34 50.71 51.04 51.195 51.387 51.467 51.532 51.71 51.802 51.84 51.84 51.847 51.932 51.937 52.125 52.305 52.31 52.33 52.47 52.597 52.732 52.855 53.072 53.382 53.665 53.955 54.162 54.327 54.367 54.355 54.345
71.723 71.728 71.655 71.683 71.11 70.513 70.428 70.513 70.468 70.38 70.295 70.42 70.363 70.225 69.915 69.598 69.388 69.278 69.255 69.215 69.265 69.23 69.175 69.115 69.055 68.97 68.76 68.548 68.345 67.925 67.885 67.765 67.538 67.438 67.11 66.82 66.7 66.568 66.63 66.655 66.67 66.618 66.483 66.35 66.38 66.42 66.145 65.79 65.303 65.03 64.883 64.43 63.005 62.738 62.578 62.535 62.53 62.573 62.403 62.345 62.598 62.68 62.443 62.6 62.44 62.153 61.945 61.753 61.618 61.393 61.09 60.845 60.81 60.773 60.663 60.565 60.5 60.515 60.325 60.168 60.025 59.78 59.638 59.563 59.458 59.36 59.303 59.148 58.86 58.763 58.703 58.608 58.475 58.458 58.208 57.94 57.808 57.63 57.395 57.285 57.215 56.873 56.11 56.065 56.028 56.005 55.94 55.945 55.918 55.893 55.863 55.795 55.805 55.745 55.74 55.693 55.64 55.608 55.525 55.52 55.47 55.443 55.4 55.378 55.4 55.385 55.343 55.285 55.28 55.215 55.223 55.178 55.105 55.07 55.04 54.975 54.898 54.875 54.835 54.788 54.805 54.798 54.79 54.78 54.785 54.795 54.77 54.735 54.665 54.655 54.65 54.61 54.568 54.575 54.508 54.488 54.39 54.4 54.4 54.433 54.245 53.72 52.785 52.065 51.725 51.715 51.755 51.82 52.595 53.915 54.625 54.94 55.053 55.073 55.025 54.86 53.96 52.693 51.155 50.333 50.265 50.15 49.905 49.748 49.553 49.525 49.47 49.398 49.35 49.253 49.18 49.09 49.028 48.998 48.938 48.995 48.973 49.025 49.05 48.96 48.91 48.63 48.508 48.323 48.125 47.903 47.795 47.598 47.343 47.16 47.045 46.918 46.845 46.873 46.898 46.883 46.863 46.868 46.878 46.895 46.875 46.845 46.848 46.793 46.835 46.913 46.898 46.938 46.94 46.93 46.955 46.963 46.968 46.958 47.01 46.958 46.99 46.888 46.888 46.905 46.92 46.93 46.888 46.915 46.893 46.92 46.848 46.895 46.843 46.83 46.828 46.858 46.89 46.938 46.898 46.898 46.94 46.878 46.88 46.86 46.873 46.905 46.878 46.858 46.855 46.855 46.868 46.858 46.863 46.91 46.898 46.89 46.858 46.835 46.85 46.873 46.883 46.828 46.825 46.865 46.865 46.84 46.833 46.828 46.86 46.813 46.81 46.835 46.82 46.825 46.853 46.825 46.873 46.853 46.845 46.788 46.763 46.778 46.753 46.743 46.725 46.71 46.675 46.745 46.783 46.788 46.795 46.805 46.823 46.768 46.763 46.755 46.673 46.638 46.753 46.833 46.645 46.423 46.43 46.685 46.815 46.91 46.94 47.025 47.065 47.1 47.12 46.825 46.445 46.443 46.46 46.78 46.963 46.968 46.913 46.883 46.938 47.08 47.46 47.363 47.34 47.175 47.188 47.228 47.255 47.29 47.328 47.338 47.403 47.458 47.683 47.708 47.758 47.813 48.088 48.203 48.195 48.168 48.173 48.175 48.308 48.255 48.21 48.138 48.113 48.09 48.2 48.243 48.27 48.223 48.29 48.163 48.125 48.2 48.278 48.318 48.355 48.455 48.508 48.615 48.65 48.713 48.713 48.678 48.688 48.703 48.72 48.72 48.685 48.705 48.795 48.825 48.887 48.897 48.992 49.085 49.125 49.212 49.272 49.3 49.27 49.16 49.257 49.435 49.43 49.407 49.435 49.497 49.625 50.167 50.575 50.965 51.095 51.227 51.352 51.587 51.81 51.802 51.865 51.87 51.89 51.88 51.897 51.84 51.965 52.357 52.442 52.447 52.542 52.652 52.79 52.92 53.177 53.44 53.755 54.065 54.212 54.372 54.375 54.362 54.35
71.768 71.66 71.618 71.543 70.99 70.47 70.158 70.293 70.37 70.205 70.24 70.333 70.353 70.17 69.893 69.625 69.46 69.273 69.218 69.175 69.203 69.123 69.105 69.035 68.975 68.88 68.668 68.453 68.243 68.05 68.165 67.64 67.483 67.265 66.995 66.865 66.675 66.335 66.388 66.658 66.748 66.645 66.503 66.43 66.47 66.5 66.493 66.468 65.643 65.293 64.908 63.705 62.838 62.72 62.62 62.593 62.625 62.67 62.438 62.683 62.72 62.748 62.633 62.573 62.415 62.185 61.993 61.78 61.653 61.425 61.118 60.913 60.915 60.845 60.72 60.605 60.545 60.503 60.378 60.203 60.01 59.813 59.68 59.603 59.53 59.47 59.41 59.13 58.933 58.88 58.78 58.645 58.523 58.47 58.24 58.028 57.895 57.715 57.498 57.343 57.253 56.753 56.125 56.075 56.05 56.048 55.945 55.908 55.923 55.898 55.868 55.803 55.795 55.778 55.743 55.728 55.633 55.605 55.505 55.518 55.47 55.478 55.4 55.378 55.428 55.395 55.363 55.28 55.29 55.198 55.243 55.128 55.103 55.073 55.045 55.015 54.963 54.878 54.835 54.823 54.828 54.813 54.803 54.833 54.788 54.753 54.768 54.725 54.663 54.648 54.653 54.658 54.63 54.588 54.53 54.485 54.47 54.443 54.375 54.373 54.338 54.05 53.248 52.383 51.808 51.758 51.77 51.85 52.5 53.813 54.578 54.92 55.05 55.055 55.033 54.838 54.09 53.053 51.413 50.385 50.33 50.193 49.915 49.723 49.583 49.55 49.5 49.413 49.333 49.255 49.17 48.995 48.998 48.958 48.92 48.958 48.928 49.01 48.923 49.023 48.963 48.745 48.57 48.43 48.245 47.933 47.82 47.633 47.47 47.29 47.075 46.945 46.843 46.845 46.883 46.875 46.855 46.878 46.858 46.895 46.855 46.883 46.843 46.775 46.75 46.85 46.833 46.89 46.888 46.883 46.873 46.883 46.905 46.915 46.92 46.903 46.94 46.925 46.925 46.938 47 47.01 46.933 46.933 46.963 46.943 46.963 46.898 46.85 46.83 46.885 46.84 46.853 46.865 46.908 46.855 46.865 46.86 46.855 46.883 46.855 46.858 46.895 46.875 46.86 46.783 46.85 46.85 46.87 46.87 46.883 46.848 46.828 46.845 46.838 46.848 46.84 46.813 46.823 46.82 46.83 46.828 46.785 46.81 46.783 46.795 46.778 46.79 46.773 46.773 46.798 46.833 46.85 46.81 46.815 46.795 46.778 46.795 46.778 46.75 46.708 46.718 46.685 46.745 46.745 46.765 46.758 46.783 46.795 46.755 46.76 46.73 46.675 46.62 46.643 46.728 46.77 46.548 46.235 46.345 46.595 46.753 46.82 46.94 47.02 47.098 47.11 46.933 46.438 46.4 46.473 46.498 46.865 46.988 46.973 46.898 47.003 47.208 47.348 47.415 47.48 47.288 47.175 47.205 47.245 47.25 47.265 47.308 47.375 47.47 47.71 47.813 47.843 47.868 48.14 48.213 48.215 48.19 48.195 48.195 48.173 48.17 48.235 48.195 48.163 48.145 48.185 48.218 48.125 48.225 48.285 48.185 48.135 48.2 48.253 48.355 48.398 48.433 48.42 48.515 48.63 48.685 48.725 48.73 48.738 48.758 48.77 48.75 48.7 48.735 48.85 48.845 48.907 48.955 49.027 49.07 49.11 49.18 49.247 49.305 49.23 49.147 49.185 49.332 49.417 49.445 49.43 49.502 50.357 50.715 51.022 50.977 51.102 51.222 51.375 51.722 51.827 51.912 51.96 51.947 51.955 51.957 51.85 51.85 51.835 52.412 52.567 52.605 52.582 52.722 52.827 52.995 53.31 53.597 53.865 54.12 54.325 54.35 54.375 54.365 54.355
71.7 71.698 71.695 71.633 71.163 70.498 69.998 70.098 70.165 69.958 70.16 70.165 70.225 70.19 69.87 69.655 69.388 69.233 69.1 69.06 69.045 69.018 68.95 68.933 68.87 68.73 68.473 68.208 67.933 67.988 67.658 67.495 67.42 67.14 66.903 66.78 66.415 66.043 66.068 66.205 66.48 66.683 66.54 66.513 66.55 66.59 66.625 66.573 66.21 65.315 64.465 63.063 62.84 62.708 62.64 62.645 62.73 62.525 62.475 62.81 62.885 62.805 62.633 62.52 62.35 62.145 61.92 61.703 61.555 61.353 61.105 61.035 61.005 60.898 60.798 60.673 60.565 60.515 60.375 60.185 60.033 59.875 59.785 59.635 59.53 59.42 59.318 59.258 59.103 58.93 58.775 58.683 58.635 58.455 58.32 58.198 58.08 57.768 57.608 57.395 57.298 56.665 56.14 56.068 56.085 56.028 55.978 55.948 55.96 55.92 55.87 55.88 55.8 55.788 55.788 55.728 55.655 55.618 55.56 55.483 55.458 55.46 55.458 55.428 55.4 55.41 55.37 55.328 55.273 55.233 55.203 55.175 55.128 55.055 55.02 55.058 55.003 54.903 54.875 54.858 54.88 54.878 54.835 54.878 54.813 54.795 54.833 54.828 54.758 54.748 54.715 54.7 54.633 54.608 54.555 54.513 54.445 54.44 54.393 54.423 54.37 54.205 53.64 52.608 51.98 51.78 51.808 51.813 52.475 53.783 54.545 54.92 55.05 55.063 55.043 54.735 54.07 52.803 51.263 50.375 50.373 50.058 49.798 49.723 49.525 49.53 49.428 49.383 49.318 49.26 49.16 49.043 48.935 48.923 48.883 48.863 48.855 48.965 48.92 48.935 48.978 48.79 48.553 48.505 48.353 47.883 47.688 47.605 47.528 47.388 47.1 46.97 46.858 46.855 46.838 46.878 46.913 46.9 46.93 46.895 46.905 46.878 46.825 46.798 46.765 46.855 46.853 46.858 46.823 46.833 46.895 46.848 46.853 46.843 46.883 46.838 46.868 46.923 46.893 46.968 46.995 47.023 47.09 47.093 46.975 46.905 46.898 46.898 46.86 46.835 46.878 46.873 46.863 46.87 46.89 46.873 46.86 46.843 46.888 46.848 46.855 46.855 46.848 46.843 46.888 46.8 46.828 46.808 46.868 46.84 46.83 46.805 46.83 46.848 46.813 46.813 46.815 46.835 46.823 46.8 46.748 46.75 46.738 46.79 46.76 46.75 46.758 46.775 46.773 46.728 46.765 46.798 46.79 46.82 46.758 46.8 46.8 46.78 46.725 46.733 46.71 46.705 46.678 46.658 46.68 46.738 46.698 46.75 46.758 46.763 46.755 46.753 46.725 46.705 46.728 46.843 46.945 46.7 46.43 46.36 46.488 46.573 46.715 46.855 46.915 47.013 47.138 47.078 46.715 46.43 46.418 46.463 46.788 46.928 46.958 46.948 47.018 47.145 47.318 47.48 47.46 47.248 47.208 47.208 47.225 47.253 47.283 47.328 47.34 47.445 47.51 47.65 47.815 47.87 47.968 48.078 48.133 48.203 48.205 48.205 48.173 48.168 48.19 48.22 48.185 48.188 48.215 48.218 48.25 48.28 48.288 48.193 48.14 48.193 48.248 48.34 48.39 48.453 48.45 48.45 48.52 48.66 48.718 48.71 48.793 48.81 48.8 48.767 48.737 48.665 48.755 48.802 48.905 48.952 49.017 49.08 49.172 49.192 49.222 49.3 49.195 49.36 49.352 49.37 49.425 49.457 49.475 49.625 50.47 51.027 51.047 51.117 51.24 51.267 51.39 51.802 51.942 52.007 52.03 52.022 52.015 52.012 51.857 51.875 51.942 52.485 52.687 52.73 52.657 52.787 52.865 53.045 53.335 53.632 53.892 54.177 54.3 54.342 54.387 54.357 54.312
71.728 71.668 71.66 71.633 71.243 70.478 69.915 69.985 70.113 69.97 70.01 69.97 70.018 70.048 69.793 69.588 69.443 69.12 68.453 68.848 68.833 68.763 68.76 68.76 68.745 68.595 68.4 68.14 67.898 67.875 67.61 67.5 67.345 67.013 66.838 66.583 66.095 66.01 65.993 65.97 66.14 66.533 66.588 66.7 66.738 66.73 66.643 66.448 65.913 64.993 63.778 62.958 62.833 62.738 62.735 62.79 62.805 62.69 62.695 62.828 62.875 62.818 62.36 62.463 62.338 62.173 61.963 61.743 61.498 61.42 61.27 61.143 61.088 60.898 60.875 60.748 60.568 60.403 60.285 60.125 59.985 59.868 59.82 59.72 59.568 59.468 59.33 59.225 59.195 58.96 58.825 58.733 58.625 58.473 58.385 58.29 58.053 57.885 57.67 57.513 57.39 56.56 56.13 56.098 56.053 56.005 55.965 55.998 55.98 55.928 55.893 55.86 55.838 55.808 55.78 55.713 55.683 55.633 55.555 55.49 55.488 55.475 55.458 55.428 55.41 55.428 55.395 55.318 55.29 55.233 55.268 55.195 55.135 55.075 55.083 55.073 55.03 54.988 54.918 54.91 54.928 54.933 54.878 54.88 54.885 54.87 54.85 54.818 54.795 54.753 54.743 54.725 54.655 54.635 54.615 54.57 54.483 54.463 54.42 54.435 54.423 54.393 54.02 53.13 52.273 51.813 51.85 51.843 52.245 53.708 54.475 54.908 55.043 55.083 55.073 54.835 53.753 52.38 51.003 50.393 50.353 50.105 49.723 49.698 49.6 49.525 49.425 49.37 49.32 49.238 49.145 49.02 48.935 48.905 48.825 48.815 48.788 48.858 48.873 48.858 48.858 48.783 48.58 48.56 48.393 48.035 47.863 47.713 47.58 47.395 47.16 47.035 46.925 46.835 46.85 46.855 46.878 46.89 46.945 46.898 46.883 46.883 46.875 46.84 46.828 46.825 46.845 46.83 46.818 46.86 46.855 46.813 46.808 46.828 46.808 46.788 46.818 46.83 46.865 46.915 46.968 47.01 47.013 47.023 47.005 47.02 47.003 46.98 46.923 46.89 46.895 46.89 46.9 46.893 46.865 46.843 46.818 46.85 46.853 46.848 46.86 46.865 46.85 46.855 46.868 46.81 46.818 46.815 46.808 46.795 46.803 46.765 46.813 46.848 46.83 46.808 46.8 46.813 46.813 46.79 46.75 46.723 46.75 46.78 46.748 46.758 46.75 46.763 46.763 46.775 46.77 46.8 46.805 46.808 46.8 46.813 46.823 46.793 46.743 46.753 46.69 46.668 46.645 46.658 46.658 46.695 46.7 46.733 46.72 46.77 46.73 46.76 46.713 46.728 46.695 46.718 46.813 46.733 46.54 46.5 46.243 46.275 46.53 46.7 46.805 46.975 47.048 47.063 46.965 46.518 46.473 46.401 46.624 46.813 46.97 46.975 46.955 47.013 47.12 47.285 47.24 47.248 47.205 47.205 47.253 47.25 47.29 47.333 47.378 47.415 47.458 47.495 47.598 47.733 47.843 47.988 48.113 48.175 48.218 48.223 48.11 48.135 48.193 48.16 48.158 48.18 48.333 48.273 48.3 48.315 48.238 48.163 48.12 48.168 48.225 48.285 48.395 48.445 48.443 48.425 48.46 48.483 48.453 48.58 48.74 48.84 48.775 48.742 48.717 48.675 48.73 48.827 48.897 48.93 48.98 48.942 49.025 49.225 49.35 49.345 49.365 49.597 49.667 49.457 49.422 49.43 49.392 49.715 50.482 51.05 51.175 50.995 51.182 51.325 51.417 51.622 51.765 51.912 51.99 51.965 51.945 51.935 51.902 51.925 52.097 52.602 52.782 52.777 52.76 52.835 52.942 53.14 53.43 53.707 53.95 54.117 54.165 54.152 54.255 54.305 54.35
71.705 71.798 71.723 71.633 71.275 70.643 69.993 69.753 69.893 69.9 69.698 69.77 69.99 70.05 69.908 69.67 69.39 68.663 68.258 68.37 68.66 68.608 68.525 68.518 68.528 68.508 68.328 68.058 67.878 67.738 67.61 67.508 67.275 66.98 66.75 66.19 66.028 66 65.965 65.983 65.975 66.25 66.488 66.58 66.613 66.605 66.57 66.018 65.325 64.553 63.145 62.913 62.835 62.78 62.843 62.89 62.715 62.673 62.875 62.86 62.9 62.795 62.428 62.405 62.36 62.285 62.143 61.945 61.678 61.533 61.358 61.285 61.218 61.043 60.98 60.798 60.58 60.35 60.195 60.078 59.92 59.815 59.765 59.685 59.585 59.485 59.403 59.323 59.24 59.01 58.845 58.868 58.7 58.5 58.523 58.373 58.105 57.993 57.7 57.535 57.293 56.5 56.153 56.128 56.103 56.015 56.038 55.97 55.963 55.933 55.935 55.925 55.84 55.83 55.818 55.703 55.685 55.63 55.553 55.485 55.49 55.47 55.43 55.408 55.383 55.403 55.378 55.38 55.34 55.273 55.28 55.203 55.195 55.115 55.118 55.118 55.113 55.04 54.985 54.948 54.968 54.908 54.913 54.915 54.913 54.895 54.85 54.795 54.808 54.788 54.785 54.768 54.713 54.688 54.638 54.6 54.558 54.49 54.448 54.48 54.448 54.425 54.295 53.48 52.563 51.908 51.76 51.838 52.24 53.508 54.5 54.913 55.045 55.08 55.055 54.803 53.675 52.39 50.925 50.388 50.343 50.073 49.775 49.713 49.64 49.52 49.423 49.373 49.31 49.225 49.153 49.073 48.903 48.888 48.825 48.795 48.768 48.835 48.87 48.858 48.82 48.728 48.608 48.495 48.43 48.268 48.048 47.79 47.59 47.473 47.343 47.123 46.975 46.845 46.863 46.873 46.858 46.928 46.873 46.863 46.843 46.865 46.848 46.825 46.835 46.783 46.848 46.85 46.838 46.823 46.828 46.8 46.78 46.795 46.825 46.795 46.765 46.795 46.833 46.858 46.87 46.895 46.935 46.93 46.938 47.03 47.013 47.003 46.998 46.953 46.925 46.888 46.883 46.875 46.863 46.865 46.85 46.82 46.81 46.853 46.815 46.84 46.823 46.863 46.788 46.775 46.805 46.835 46.795 46.743 46.788 46.788 46.78 46.853 46.85 46.81 46.825 46.8 46.778 46.763 46.74 46.733 46.75 46.748 46.735 46.735 46.748 46.743 46.735 46.755 46.78 46.768 46.79 46.798 46.79 46.773 46.808 46.793 46.75 46.74 46.72 46.685 46.663 46.653 46.653 46.705 46.705 46.77 46.783 46.79 46.755 46.755 46.74 46.748 46.73 46.713 46.653 46.713 46.658 46.725 46.543 46.193 46.125 46.485 46.71 46.883 46.908 47.008 47.028 46.913 46.405 46.515 46.433 46.398 46.753 46.953 46.935 46.96 47.073 47.19 47.168 47.168 47.155 47.253 47.25 47.303 47.36 47.378 47.395 47.455 47.505 47.523 47.498 47.513 47.535 47.73 47.953 48.12 48.125 48.155 48.13 48.128 48.195 48.173 48.245 48.248 48.33 48.36 48.34 48.313 48.298 48.25 48.153 48.143 48.218 48.263 48.398 48.498 48.485 48.49 48.48 48.49 48.488 48.498 48.523 48.565 48.722 48.7 48.687 48.672 48.775 48.855 48.922 48.847 48.845 48.767 48.81 49.062 49.35 49.485 49.397 49.325 49.452 49.455 49.45 49.41 49.397 50.052 50.587 50.9 51.095 51.015 51.092 51.342 51.442 51.612 51.687 51.83 51.95 51.925 51.905 51.93 51.935 52.127 52.257 52.66 52.787 52.79 52.812 52.857 53.057 53.305 53.57 53.747 54.092 54.232 54.265 54.25 54.227 54.24 54.21
71.525 71.703 71.705 71.625 71.245 70.613 69.958 69.738 69.845 69.875 69.7 69.75 69.735 69.968 69.865 69.568 68.928 68.27 68.368 68.373 68.468 68.58 68.535 68.425 68.348 68.26 68.198 68.143 68.008 67.718 67.618 67.438 67.168 66.808 66.488 66.043 66.005 66.023 65.993 65.97 65.95 65.925 66.083 66.16 66.285 66.428 66.193 65.543 64.875 63.883 63.133 62.935 62.883 62.865 62.925 62.953 62.963 62.955 62.983 62.905 62.75 62.733 62.425 62.39 62.363 62.353 62.16 62.01 61.87 61.805 61.603 61.463 61.238 61.088 60.99 60.795 60.488 60.295 60.145 59.98 59.858 59.798 59.73 59.615 59.458 59.435 59.405 59.413 59.323 59.248 59.013 58.868 58.735 58.59 58.483 58.355 58.188 58.073 57.835 57.558 57.343 56.483 56.148 56.12 56.123 56.033 56.04 56.005 55.988 55.94 55.93 55.915 55.898 55.798 55.828 55.735 55.685 55.663 55.573 55.498 55.485 55.485 55.418 55.393 55.383 55.39 55.373 55.405 55.373 55.353 55.288 55.238 55.193 55.183 55.145 55.15 55.133 55.1 55.108 55.038 55.003 54.945 54.92 54.958 54.883 54.908 54.888 54.845 54.825 54.8 54.78 54.783 54.708 54.658 54.623 54.623 54.548 54.535 54.46 54.495 54.443 54.455 54.408 53.733 52.83 52.005 51.863 51.998 52.163 53.61 54.538 54.903 55.045 55.123 55.025 54.758 53.758 52.488 51.013 50.413 50.248 50.058 49.815 49.708 49.625 49.55 49.453 49.375 49.305 49.235 49.165 49.07 48.948 48.863 48.825 48.7 48.698 48.77 48.8 48.833 48.765 48.803 48.715 48.505 48.438 48.538 48.233 47.908 47.638 47.583 47.483 47.24 47.08 46.895 46.863 46.89 46.875 46.878 46.883 46.86 46.878 46.903 46.88 46.868 46.833 46.773 46.835 46.853 46.853 46.875 46.81 46.795 46.785 46.765 46.798 46.76 46.755 46.79 46.815 46.79 46.808 46.838 46.815 46.863 46.878 46.915 46.938 46.953 47.03 46.98 46.97 46.98 46.935 46.935 46.918 46.928 46.895 46.85 46.868 46.915 46.855 46.868 46.845 46.825 46.818 46.818 46.803 46.823 46.77 46.755 46.8 46.758 46.798 46.838 46.763 46.805 46.833 46.838 46.803 46.773 46.72 46.768 46.763 46.773 46.79 46.803 46.758 46.733 46.758 46.76 46.72 46.745 46.758 46.788 46.768 46.805 46.793 46.783 46.748 46.768 46.698 46.703 46.673 46.728 46.703 46.683 46.7 46.738 46.755 46.743 46.745 46.778 46.718 46.708 46.695 46.7 46.65 46.663 46.768 46.89 46.77 46.655 46.215 46.178 46.515 46.665 46.723 46.933 47.043 47.158 46.673 46.593 46.377 46.398 46.417 46.98 46.94 46.96 47.023 47.165 47.175 47.165 47.173 47.213 47.228 47.323 47.378 47.413 47.463 47.528 47.528 47.513 47.493 47.488 47.538 47.52 47.588 48.028 48.13 48.205 48.215 48.148 48.198 48.193 48.315 48.348 48.385 48.443 48.375 48.343 48.258 48.273 48.195 48.125 48.218 48.278 48.368 48.46 48.488 48.49 48.535 48.55 48.54 48.533 48.535 48.548 48.482 48.505 48.595 48.61 48.827 48.992 48.985 48.887 48.792 48.73 48.777 48.987 49.22 49.46 49.585 49.472 49.4 49.405 49.467 49.465 49.535 50.175 50.775 50.98 51.065 51.155 51.235 51.29 51.4 51.435 51.515 51.685 51.897 51.88 51.905 51.89 51.982 52.205 52.387 52.507 52.697 52.802 52.857 52.907 53.252 53.732 53.87 53.972 54.147 54.275 54.277 54.262 54.27 54.27 54.207
70.84 71.25 71.398 71.245 71.023 70.49 70.005 69.72 69.753 69.743 69.705 69.65 69.505 69.44 69.525 69.23 68.288 68.265 68.378 68.345 68.4 68.515 68.61 68.53 68.41 68.383 68.305 68.17 67.993 67.85 67.653 67.455 67.183 66.615 66.175 65.955 65.985 65.995 65.98 65.983 65.955 65.95 65.995 65.975 65.985 66.038 65.705 65.165 64.588 63.363 63.083 62.963 62.928 62.963 62.99 62.978 62.953 62.988 62.945 62.88 62.615 62.503 62.425 62.42 62.41 62.398 62.225 62.058 61.98 61.97 61.838 61.585 61.413 61.165 60.965 60.74 60.515 60.303 60.128 59.918 59.793 59.683 59.545 59.605 59.515 59.45 59.44 59.5 59.425 59.393 59.155 58.73 58.533 58.4 57.988 58.1 58.238 58.288 57.948 57.59 57.34 56.393 56.16 56.135 56.075 56.055 56.018 56.015 55.98 55.928 55.928 55.928 55.885 55.828 55.828 55.778 55.71 55.645 55.59 55.515 55.485 55.46 55.43 55.388 55.433 55.405 55.385 55.458 55.383 55.328 55.303 55.273 55.233 55.208 55.195 55.13 55.123 55.125 55.05 55.108 55.063 54.945 54.958 54.998 54.99 54.955 54.938 54.845 54.79 54.845 54.808 54.793 54.755 54.72 54.685 54.663 54.57 54.535 54.498 54.483 54.45 54.46 54.378 53.83 53 52.115 51.875 51.953 52.17 53.385 54.5 54.888 55.038 55.068 54.985 54.523 53.755 52.42 50.943 50.453 50.288 50.095 49.87 49.785 49.628 49.588 49.49 49.378 49.295 49.213 49.14 49.03 48.925 48.808 48.765 48.65 48.618 48.668 48.728 48.788 48.733 48.738 48.713 48.563 48.445 48.52 48.385 48.12 47.838 47.675 47.468 47.403 47.203 46.983 46.905 46.89 46.898 46.88 46.875 46.888 46.855 46.895 46.885 46.87 46.898 46.823 46.813 46.845 46.853 46.795 46.84 46.83 46.798 46.788 46.793 46.763 46.818 46.81 46.813 46.84 46.798 46.81 46.818 46.818 46.823 46.833 46.82 46.838 46.863 46.908 46.898 46.898 46.933 46.988 47.005 46.995 47.003 46.908 46.885 46.863 46.878 46.838 46.86 46.855 46.853 46.83 46.795 46.773 46.77 46.81 46.765 46.755 46.783 46.77 46.778 46.81 46.793 46.765 46.763 46.755 46.79 46.785 46.78 46.778 46.775 46.77 46.788 46.75 46.728 46.71 46.718 46.75 46.73 46.76 46.738 46.748 46.74 46.763 46.738 46.723 46.71 46.713 46.705 46.663 46.69 46.695 46.675 46.695 46.695 46.748 46.69 46.71 46.715 46.713 46.653 46.663 46.658 46.655 46.748 46.78 46.795 46.853 46.755 46.35 46.24 46.518 46.62 46.793 47.043 47.12 46.99 46.518 46.475 46.409 46.38 46.718 46.818 46.938 46.933 47.038 47.145 47.073 47.12 47.158 47.27 47.355 47.4 47.43 47.49 47.505 47.48 47.615 47.505 47.488 47.53 47.538 47.615 48.145 48.2 48.18 48.17 48.18 48.19 48.225 48.32 48.41 48.39 48.425 48.388 48.34 48.328 48.3 48.255 48.168 48.245 48.3 48.448 48.545 48.598 48.635 48.605 48.54 48.553 48.568 48.57 48.53 48.505 48.515 48.545 48.58 48.615 48.81 48.795 48.675 48.715 48.702 48.697 48.795 49.075 49.35 49.625 49.59 49.425 49.365 49.485 49.48 49.647 50.21 50.837 51.117 51.13 51.202 51.28 51.347 51.43 51.492 51.497 51.507 51.775 51.837 51.785 51.727 51.92 52.242 52.45 52.625 52.735 52.812 52.877 52.987 53.495 53.975 54.1 54.195 54.197 54.282 54.29 54.297 54.302 54.3 54.21
70.565 70.848 70.863 70.718 70.705 70.603 69.908 69.408 69.388 69.498 69.558 69.505 69.395 69.285 69.3 69.008 68.265 68.24 68.26 68.315 68.32 68.443 68.48 68.463 68.5 68.538 68.718 68.558 68.218 67.95 67.68 67.35 66.96 66.405 65.995 65.97 65.983 65.98 65.96 66 65.993 65.948 65.995 65.993 65.945 65.73 65.403 64.943 63.928 63.203 63.055 63 62.988 62.85 63.088 63.038 63.045 63.06 63.048 62.93 62.748 62.513 62.463 62.468 62.445 62.438 62.288 62.11 62.065 62.04 61.91 61.685 61.508 61.19 60.978 60.67 60.433 60.285 60.108 59.893 59.775 59.695 59.588 59.535 59.533 59.47 59.485 59.505 59.475 59.393 59.305 58.705 58.605 58.285 57.938 57.952 58.069 58.133 57.933 57.663 57.39 56.355 56.165 56.155 56.063 56.013 56.033 56.02 55.965 55.92 55.925 55.95 55.903 55.853 55.845 55.748 55.713 55.683 55.608 55.53 55.48 55.438 55.438 55.385 55.405 55.405 55.375 55.398 55.423 55.365 55.333 55.335 55.258 55.245 55.238 55.23 55.18 55.113 55.073 55.095 55.058 55.02 55.013 55.013 55.035 54.978 54.933 54.878 54.843 54.773 54.823 54.843 54.725 54.725 54.705 54.663 54.593 54.533 54.503 54.463 54.49 54.445 54.45 54.12 53.138 52.245 51.873 51.925 52.185 53.355 54.4 54.885 55.073 55.098 55.038 54.673 53.818 52.403 50.958 50.5 50.3 50.03 49.818 49.82 49.73 49.508 49.475 49.385 49.295 49.233 49.15 49.01 48.91 48.868 48.775 48.665 48.605 48.618 48.73 48.778 48.728 48.703 48.613 48.575 48.475 48.385 48.473 48.283 48.133 47.818 47.58 47.418 47.255 47.063 46.975 46.93 46.903 46.893 46.885 46.9 46.893 46.868 46.878 46.885 46.915 46.873 46.848 46.83 46.863 46.78 46.83 46.81 46.823 46.805 46.788 46.735 46.808 46.828 46.783 46.763 46.81 46.788 46.775 46.778 46.788 46.815 46.77 46.765 46.795 46.808 46.813 46.803 46.913 46.995 46.955 47.008 47.038 46.99 46.943 46.91 46.935 46.913 46.845 46.873 46.825 46.868 46.853 46.805 46.788 46.78 46.795 46.77 46.755 46.745 46.76 46.775 46.745 46.735 46.765 46.785 46.775 46.725 46.785 46.74 46.765 46.768 46.79 46.763 46.738 46.73 46.693 46.685 46.743 46.693 46.723 46.73 46.673 46.713 46.735 46.723 46.693 46.698 46.68 46.695 46.718 46.67 46.675 46.688 46.685 46.713 46.695 46.71 46.715 46.648 46.678 46.653 46.648 46.618 46.683 46.745 46.78 46.953 46.798 46.653 46.238 46.328 46.55 46.66 46.92 47.09 47.003 46.633 46.525 46.385 46.365 46.395 46.735 47.098 47.075 46.91 47.105 47.185 47.173 47.16 47.235 47.3 47.398 47.478 47.475 47.545 47.518 47.65 47.58 47.495 47.513 47.52 47.823 48.123 48.178 48.188 48.195 48.205 48.205 48.235 48.278 48.335 48.408 48.418 48.45 48.33 48.293 48.273 48.215 48.218 48.268 48.285 48.448 48.473 48.648 48.805 48.693 48.615 48.618 48.548 48.505 48.49 48.492 48.53 48.55 48.58 48.622 48.645 48.775 48.655 48.59 48.625 48.785 48.95 49.04 49.235 49.512 49.557 49.472 49.505 49.482 49.47 50.097 50.737 50.965 51.047 51.12 51.217 51.287 51.415 51.492 51.502 51.515 51.507 51.56 51.79 51.762 51.87 52.152 52.43 52.547 52.627 52.795 52.86 52.9 53.097 53.805 54.052 54.097 54.175 54.18 54.245 54.257 54.285 54.315 54.327 54.192
70.468 70.553 70.58 70.57 70.565 70.533 70.1 69.415 69.325 69.443 69.315 69.343 69.225 69.07 68.788 68.388 68.233 68.255 68.175 68.2 68.253 68.36 68.35 68.375 68.483 68.588 68.958 68.883 68.603 67.993 67.5 66.973 66.51 66.183 66.07 66.018 65.983 65.97 65.958 65.978 65.96 65.948 65.935 65.925 65.803 65.57 65.303 64.578 63.495 63.153 63.073 63.063 63.125 63.118 62.993 63.088 63.143 62.993 63.033 62.91 62.703 62.54 62.493 62.508 62.478 62.483 62.348 62.203 62.133 62.1 61.995 61.79 61.553 61.22 61.02 60.698 60.575 60.4 60.188 59.96 59.825 59.753 59.703 59.488 59.503 59.48 59.498 59.52 59.45 59.42 59.165 58.815 58.588 58.244 58.012 58.033 58.163 58.145 57.998 57.765 57.305 56.34 56.16 56.168 56.085 56.065 56.055 56.018 55.983 55.96 55.94 55.945 55.895 55.87 55.843 55.803 55.755 55.673 55.61 55.535 55.473 55.453 55.433 55.36 55.42 55.39 55.408 55.413 55.388 55.415 55.395 55.34 55.333 55.298 55.27 55.255 55.215 55.195 55.21 55.18 55.118 55.073 55.02 55.005 55.038 54.99 54.963 54.95 54.913 54.85 54.813 54.83 54.793 54.768 54.765 54.72 54.675 54.558 54.488 54.463 54.518 54.55 54.535 54.265 53.243 52.263 51.81 51.87 52.12 53.383 54.458 54.908 55.05 55.1 54.98 54.685 53.84 52.455 51.043 50.418 50.218 50.083 49.963 49.838 49.78 49.635 49.548 49.378 49.265 49.213 49.148 49.023 48.92 48.873 48.768 48.675 48.573 48.585 48.645 48.73 48.735 48.683 48.705 48.723 48.67 48.493 48.528 48.52 48.285 47.953 47.688 47.455 47.395 47.18 47.025 46.975 46.968 46.905 46.903 46.878 46.87 46.845 46.885 46.908 46.893 46.88 46.798 46.813 46.86 46.835 46.83 46.783 46.818 46.793 46.795 46.79 46.78 46.775 46.793 46.76 46.76 46.785 46.79 46.775 46.78 46.74 46.743 46.778 46.778 46.755 46.7 46.725 46.815 46.878 46.883 46.903 46.95 46.948 46.928 46.97 46.988 46.938 46.968 46.875 46.9 46.833 46.778 46.82 46.763 46.805 46.83 46.803 46.798 46.795 46.785 46.795 46.795 46.813 46.748 46.775 46.798 46.765 46.783 46.783 46.785 46.783 46.798 46.76 46.818 46.758 46.758 46.733 46.728 46.698 46.708 46.743 46.715 46.703 46.708 46.725 46.715 46.71 46.71 46.678 46.66 46.675 46.665 46.703 46.663 46.65 46.643 46.66 46.688 46.67 46.638 46.643 46.655 46.683 46.65 46.668 46.728 46.848 46.858 46.838 46.495 46.14 46.228 46.488 46.768 46.89 46.973 46.843 46.648 46.417 46.375 46.43 46.565 46.953 47.03 46.97 47.073 47.125 47.168 47.205 47.263 47.318 47.405 47.488 47.513 47.498 47.593 47.623 47.575 47.498 47.488 47.545 47.998 48.165 48.203 48.21 48.22 48.23 48.238 48.248 48.15 48.21 48.335 48.43 48.418 48.243 48.305 48.285 48.248 48.263 48.295 48.22 48.468 48.595 48.708 48.808 48.77 48.71 48.633 48.625 48.543 48.443 48.49 48.515 48.543 48.573 48.6 48.595 48.745 48.505 48.558 48.59 48.833 49.09 49.333 49.475 49.538 49.575 49.485 49.528 49.5 49.553 50.143 50.933 51.003 51.058 51.145 51.23 51.278 51.415 51.43 51.44 51.45 51.515 51.57 51.81 51.92 52.03 52.293 52.605 52.805 52.81 52.863 52.883 52.968 53.413 53.97 54.098 54.12 54.195 54.19 54.218 54.21 54.192 54.192 54.22 54.147
70.263 70.223 70.265 70.363 70.433 70.43 69.675 69.303 69.25 69.34 69.298 69.208 69.058 69.063 68.698 68.32 68.32 68.263 68.195 68.103 68.095 68.23 68.238 68.353 68.393 68.505 68.728 68.655 68.483 67.778 67.335 66.86 66.458 66.26 66.15 66.045 66.02 66.003 65.993 65.953 65.968 65.96 65.985 65.913 65.735 65.445 65.175 64.35 63.315 62.99 63.068 63.153 63.065 62.93 63.07 63.18 63.243 63.128 63.045 62.908 62.738 62.575 62.533 62.49 62.483 62.515 62.4 62.285 62.21 62.19 62.093 61.858 61.58 61.255 61.07 60.82 60.685 60.455 60.31 60.158 59.888 59.808 59.775 59.743 59.695 59.61 59.52 59.41 59.47 59.348 59.148 58.873 58.558 58.428 58.232 58.205 58.335 58.258 57.99 57.828 57.115 56.338 56.213 56.16 56.103 56.11 56.045 56.038 56.015 55.973 55.965 55.92 55.883 55.878 55.903 55.783 55.74 55.708 55.63 55.568 55.493 55.403 55.44 55.403 55.425 55.41 55.408 55.473 55.455 55.418 55.435 55.415 55.34 55.34 55.28 55.318 55.303 55.23 55.215 55.215 55.173 55.12 55.063 55.095 55.035 55.075 55.01 54.963 54.95 54.855 54.878 54.835 54.803 54.783 54.723 54.71 54.623 54.633 54.558 54.503 54.54 54.518 54.54 54.235 53.36 52.313 51.83 51.858 52.105 53.195 54.463 54.925 55.05 55.093 54.998 54.765 53.698 52.315 50.983 50.4 50.223 50.095 49.948 49.805 49.773 49.678 49.54 49.388 49.333 49.238 49.16 49.04 48.93 48.858 48.683 48.62 48.563 48.56 48.585 48.653 48.685 48.638 48.645 48.675 48.62 48.438 48.335 48.525 48.393 48.123 47.773 47.583 47.465 47.308 47.108 47.013 46.993 46.93 46.873 46.903 46.885 46.915 46.908 46.895 46.87 46.845 46.745 46.758 46.895 46.845 46.8 46.8 46.798 46.79 46.795 46.81 46.795 46.78 46.78 46.733 46.783 46.798 46.773 46.758 46.743 46.768 46.755 46.748 46.75 46.683 46.728 46.768 46.78 46.815 46.818 46.815 46.833 46.878 46.885 46.87 46.9 46.935 46.918 46.928 46.925 46.853 46.883 46.91 46.813 46.77 46.815 46.815 46.805 46.86 46.843 46.855 46.823 46.783 46.788 46.788 46.84 46.808 46.74 46.73 46.775 46.783 46.82 46.74 46.78 46.725 46.76 46.753 46.745 46.723 46.705 46.72 46.7 46.705 46.715 46.71 46.703 46.653 46.67 46.663 46.64 46.645 46.64 46.648 46.66 46.655 46.663 46.685 46.693 46.668 46.65 46.678 46.623 46.638 46.648 46.623 46.638 46.7 46.765 46.918 46.81 46.515 46.043 46.293 46.665 46.698 46.835 46.928 46.935 46.669 46.386 46.402 46.383 46.528 46.975 46.98 47.08 47.11 47.17 47.22 47.24 47.318 47.365 47.428 47.495 47.503 47.543 47.55 47.535 47.563 47.515 47.593 48.11 48.158 48.225 48.235 48.243 48.253 48.263 48.265 48.168 48.233 48.278 48.368 48.413 48.3 48.32 48.273 48.228 48.295 48.34 48.405 48.383 48.59 48.65 48.803 48.773 48.713 48.605 48.6 48.625 48.613 48.575 48.56 48.585 48.61 48.615 48.648 48.653 48.645 48.603 48.618 48.743 49.095 49.355 49.593 49.638 49.565 49.488 49.553 49.51 49.543 50.695 50.958 51.073 51.085 51.163 51.235 51.26 51.358 51.368 51.378 51.445 51.548 51.663 51.903 52.08 52.195 52.43 52.743 52.88 52.898 52.873 52.91 53.105 53.663 54.005 54.053 54.135 54.163 54.213 54.228 54.245 54.247 54.232 54.185 54.145
69.933 69.908 69.833 69.933 70.028 70.083 69.28 69.16 69.075 69.2 69.173 69.068 68.98 68.965 68.393 68.385 68.345 68.3 68.25 68.215 68.173 68.105 68.208 68.235 68.193 68.405 68.475 68.3 67.97 67.42 67.068 66.735 66.393 66.195 66.138 66.035 66.018 65.985 65.92 65.965 65.983 65.948 65.865 65.8 65.493 65.075 64.62 63.748 63.338 63.263 63.245 63.255 63.16 63.23 63.155 63.28 63.24 63.168 63.05 62.87 62.715 62.585 62.465 62.48 62.45 62.455 62.355 62.318 62.268 62.275 62.183 61.91 61.6 61.295 61.11 60.975 60.75 60.505 60.385 60.258 59.963 59.903 59.875 59.845 59.78 59.715 59.643 59.605 59.6 59.473 59.173 58.885 58.593 58.465 58.413 58.405 58.403 58.29 58.065 57.873 57.373 56.3 56.178 56.19 56.138 56.093 56.088 56.078 56.068 56.005 55.97 55.96 55.948 55.878 55.843 55.808 55.78 55.755 55.608 55.558 55.47 55.415 55.41 55.453 55.443 55.438 55.418 55.443 55.435 55.438 55.413 55.438 55.413 55.338 55.283 55.338 55.293 55.273 55.228 55.218 55.21 55.18 55.105 55.115 55.105 55.11 55.075 54.935 54.92 54.91 54.913 54.888 54.833 54.768 54.73 54.728 54.683 54.633 54.603 54.583 54.503 54.53 54.503 54.25 53.29 52.39 51.835 51.85 52.033 53.243 54.413 54.92 55.05 55.043 55.04 54.693 53.655 52.295 50.79 50.483 50.375 50.16 49.965 49.795 49.658 49.558 49.505 49.395 49.29 49.265 49.17 49.038 48.925 48.865 48.748 48.623 48.575 48.5 48.525 48.545 48.583 48.6 48.588 48.635 48.645 48.51 48.33 48.363 48.485 48.24 48.013 47.76 47.523 47.373 47.218 47.038 47.02 46.965 46.898 46.915 46.888 46.905 46.898 46.92 46.9 46.868 46.76 46.793 46.86 46.838 46.813 46.8 46.815 46.778 46.81 46.798 46.808 46.793 46.768 46.778 46.745 46.76 46.74 46.765 46.765 46.718 46.748 46.758 46.753 46.715 46.76 46.753 46.785 46.768 46.783 46.8 46.78 46.795 46.83 46.808 46.828 46.845 46.885 46.86 46.903 46.875 46.893 46.868 46.86 46.84 46.8 46.818 46.82 46.815 46.805 46.863 46.85 46.86 46.815 46.83 46.798 46.78 46.81 46.758 46.77 46.778 46.778 46.75 46.745 46.75 46.715 46.733 46.723 46.74 46.728 46.743 46.74 46.715 46.765 46.715 46.69 46.708 46.675 46.683 46.693 46.665 46.605 46.61 46.618 46.645 46.608 46.633 46.61 46.623 46.62 46.618 46.615 46.623 46.668 46.648 46.62 46.633 46.638 46.67 46.71 46.615 46.26 46.165 46.448 46.635 46.78 46.935 46.945 46.83 46.67 46.433 46.159 46.322 46.915 46.958 47.05 47.03 47.13 47.193 47.288 47.355 47.378 47.37 47.43 47.463 47.513 47.518 47.563 47.533 47.505 47.695 48.09 48.195 48.248 48.255 48.26 48.26 48.25 48.233 48.185 48.208 48.24 48.313 48.283 48.285 48.32 48.31 48.3 48.33 48.355 48.338 48.47 48.588 48.68 48.728 48.678 48.65 48.608 48.593 48.6 48.605 48.605 48.613 48.6 48.63 48.623 48.668 48.71 48.775 48.715 48.75 48.965 49.048 49.19 49.54 49.61 49.555 49.543 49.558 49.55 49.86 50.98 50.955 51.085 51.128 51.16 51.173 51.263 51.31 51.308 51.373 51.453 51.518 51.6 51.79 52.1 52.36 52.57 52.728 52.948 52.843 52.885 52.955 53.3 53.9 54.073 54.175 54.123 54.158 54.218 54.268 54.242 54.265 54.275 54.177 54.157
69.625 69.598 69.403 69.493 69.533 69.175 69.173 69.08 69.16 69.138 69.06 68.83 68.715 68.42 68.35 68.318 68.285 68.255 68.22 68.188 68.143 68.113 68.173 67.965 68.093 68.203 68.073 67.863 67.503 67.218 67.018 66.798 66.485 66.215 66.223 66.068 66.003 66 66.023 66.053 66.068 66.023 65.795 65.535 65.225 64.733 64.155 63.373 63.098 63.265 63.235 63.33 63.268 63.113 63.288 63.345 63.248 63.193 62.955 62.83 62.72 62.53 62.48 62.445 62.43 62.39 62.28 62.235 62.203 62.115 62.06 61.89 61.53 61.29 61.198 61.085 60.8 60.56 60.468 60.313 59.998 60.015 59.983 59.975 59.918 59.86 59.818 59.828 59.86 59.733 59.388 59.068 58.713 58.503 58.495 58.488 58.43 58.343 58.118 57.99 57.345 56.34 56.203 56.193 56.155 56.083 56.04 56.055 56.055 56.013 55.973 55.95 55.933 55.89 55.863 55.778 55.795 55.755 55.68 55.555 55.448 55.45 55.445 55.433 55.455 55.483 55.435 55.43 55.448 55.443 55.408 55.415 55.415 55.345 55.358 55.313 55.35 55.27 55.24 55.253 55.225 55.215 55.185 55.13 55.083 55.125 55.08 54.978 54.923 54.903 54.938 54.875 54.845 54.78 54.78 54.763 54.705 54.668 54.648 54.583 54.55 54.565 54.57 54.3 53.42 52.39 51.935 51.888 52.095 53.065 54.4 54.91 55.05 55.1 55.02 54.56 53.628 52.203 50.768 50.513 50.33 50.193 50.025 49.855 49.688 49.475 49.525 49.4 49.333 49.268 49.173 49.035 48.913 48.84 48.71 48.598 48.485 48.418 48.393 48.385 48.463 48.63 48.613 48.635 48.693 48.49 48.365 48.323 48.33 48.145 47.97 47.788 47.615 47.408 47.225 47.065 47.013 46.935 46.89 46.895 46.935 46.925 46.92 46.918 46.92 46.9 46.838 46.77 46.84 46.845 46.783 46.795 46.803 46.793 46.785 46.78 46.778 46.79 46.813 46.77 46.808 46.768 46.763 46.75 46.773 46.75 46.803 46.78 46.743 46.765 46.765 46.775 46.78 46.79 46.788 46.788 46.79 46.75 46.735 46.75 46.79 46.773 46.78 46.793 46.808 46.793 46.798 46.855 46.825 46.813 46.825 46.813 46.803 46.823 46.853 46.863 46.86 46.873 46.83 46.823 46.833 46.828 46.843 46.82 46.783 46.773 46.76 46.765 46.745 46.743 46.725 46.765 46.765 46.715 46.765 46.768 46.758 46.723 46.753 46.72 46.71 46.725 46.693 46.718 46.703 46.663 46.67 46.635 46.655 46.653 46.633 46.63 46.658 46.608 46.6 46.593 46.625 46.625 46.63 46.58 46.565 46.573 46.603 46.593 46.625 46.705 46.515 46.085 46.115 46.515 46.598 46.783 46.93 46.933 46.683 46.448 46.222 46.281 46.459 46.683 46.92 46.933 47.04 47.165 47.268 47.298 47.4 47.35 47.49 47.715 47.655 47.615 47.518 47.508 47.62 47.93 48.15 48.155 48.233 48.25 48.258 48.26 48.25 48.233 48.19 48.245 48.258 48.263 48.258 48.273 48.293 48.255 48.313 48.353 48.378 48.378 48.453 48.368 48.6 48.683 48.715 48.64 48.618 48.585 48.593 48.608 48.605 48.595 48.598 48.543 48.568 48.698 48.803 48.788 48.815 48.868 48.893 49.028 49.165 49.518 49.555 49.543 49.573 49.55 49.603 50.415 51.028 51.055 51.103 51.088 51.158 51.213 51.258 51.303 51.285 51.36 51.43 51.5 51.59 51.84 52.12 52.39 52.548 52.613 52.765 52.83 52.913 53.045 53.428 53.878 54.078 54.213 54.35 54.293 54.378 54.4 54.277 54.327 54.19 54.16 54.335
69.478 69.425 69.2 69.295 69.17 69.055 69.083 69.06 69.075 69.038 68.958 68.788 68.395 68.435 68.33 68.298 68.265 68.233 68.2 68.155 68.11 68.14 68.068 67.895 67.89 67.873 67.66 67.455 67.27 67.295 67.07 66.81 66.508 66.318 66.278 66.113 66.003 65.99 66.078 66.088 66.073 65.993 65.795 65.455 64.913 64.325 63.753 63.273 63.245 63.2 63.338 63.338 63.118 63.33 63.363 63.363 63.22 63.148 63 62.818 62.633 62.505 62.458 62.433 62.345 62.29 62.268 62.203 62.11 62.083 61.99 61.815 61.48 61.328 61.253 61.105 60.918 60.67 60.595 60.5 60.183 60.165 60.148 60.138 60.173 60.09 60.01 59.96 59.955 59.898 59.528 59.145 58.93 58.583 58.565 58.555 58.45 58.338 58.21 58.065 57.473 56.353 56.228 56.185 56.123 56.085 56.053 56.033 56.005 55.995 55.993 55.985 55.92 55.858 55.89 55.865 55.813 55.738 55.69 55.603 55.505 55.453 55.443 55.478 55.463 55.468 55.448 55.473 55.473 55.465 55.408 55.448 55.43 55.36 55.368 55.353 55.365 55.29 55.23 55.258 55.225 55.243 55.213 55.21 55.145 55.133 55.058 55.003 54.935 54.918 54.948 54.93 54.89 54.8 54.783 54.795 54.735 54.668 54.633 54.62 54.573 54.563 54.563 54.39 53.553 52.483 51.89 51.815 52.188 53.153 54.478 54.918 55.075 55.12 55.103 54.8 53.528 52.088 50.74 50.408 50.278 50.165 50.025 49.863 49.623 49.488 49.56 49.41 49.333 49.295 49.185 49.013 48.833 48.608 48.625 48.5 48.498 48.418 48.425 48.36 48.408 48.54 48.58 48.583 48.568 48.505 48.458 48.335 48.32 48.283 48.03 47.798 47.635 47.528 47.378 47.125 47.038 46.948 46.898 46.913 46.968 46.92 46.863 46.905 46.92 46.9 46.795 46.77 46.798 46.84 46.798 46.78 46.805 46.78 46.78 46.78 46.745 46.79 46.783 46.76 46.773 46.808 46.803 46.763 46.78 46.795 46.773 46.803 46.745 46.8 46.768 46.805 46.81 46.783 46.798 46.743 46.735 46.775 46.758 46.763 46.735 46.738 46.773 46.748 46.765 46.755 46.753 46.768 46.755 46.738 46.753 46.793 46.8 46.83 46.84 46.9 46.878 46.853 46.825 46.82 46.85 46.82 46.813 46.835 46.83 46.813 46.843 46.815 46.755 46.773 46.795 46.723 46.773 46.748 46.725 46.75 46.705 46.72 46.755 46.74 46.718 46.693 46.705 46.72 46.7 46.688 46.7 46.655 46.643 46.643 46.638 46.668 46.65 46.658 46.675 46.61 46.643 46.658 46.67 46.645 46.62 46.613 46.635 46.63 46.705 46.768 46.698 46.343 45.983 46.31 46.518 46.665 46.893 46.953 46.908 46.585 46.353 46.311 46.42 46.393 46.758 46.853 46.885 47.025 47.365 47.43 47.433 47.503 47.533 47.693 47.81 47.968 48 47.725 48.015 48.075 48.11 48.153 48.16 48.163 48.175 48.195 48.203 48.27 48.223 48.255 48.295 48.283 48.245 48.223 48.235 48.273 48.303 48.348 48.385 48.395 48.398 48.385 48.565 48.56 48.575 48.598 48.628 48.613 48.603 48.628 48.615 48.665 48.68 48.548 48.585 48.77 48.878 48.833 48.878 48.928 49.028 49.22 49.373 49.508 49.543 49.563 49.593 49.558 49.648 50.968 51.003 50.985 51.005 51.065 51.173 51.223 51.29 51.34 51.29 51.365 51.46 51.545 51.65 51.923 52.165 52.378 52.555 52.61 52.638 52.783 52.955 53.12 53.623 53.918 53.985 54.085 54.255 54.355 54.388 54.53 54.497 54.487 54.465 54.365 54.745
69.495 69.42 69.298 69.185 69.088 69.083 69.043 69.003 68.85 68.93 68.855 68.83 68.43 68.4 68.315 68.278 68.245 68.213 68.175 68.125 68.093 68.123 67.948 67.818 67.55 67.333 67.335 67.333 67.28 67.255 66.933 66.828 66.56 66.458 66.358 66.153 66.023 65.988 66.058 66.123 65.953 65.848 65.58 65.555 64.805 64.09 63.45 63.173 63.26 63.318 63.483 63.465 63.403 63.473 63.485 63.385 63.283 63.175 63.023 62.865 62.743 62.6 62.478 62.45 62.35 62.308 62.198 62.113 61.995 61.903 61.805 61.65 61.45 61.285 61.12 60.945 60.795 60.653 60.655 60.625 60.385 60.298 60.278 60.29 60.293 60.165 60.048 59.748 59.7 59.8 59.54 58.975 59.08 58.775 58.635 58.59 58.483 58.408 58.245 58.135 57.443 56.34 56.21 56.175 56.165 56.115 56.11 56.08 56.045 56.023 56.013 55.993 55.928 55.873 55.885 55.89 55.82 55.775 55.71 55.635 55.525 55.465 55.463 55.453 55.478 55.453 55.478 55.465 55.453 55.425 55.468 55.463 55.4 55.44 55.418 55.388 55.363 55.32 55.275 55.265 55.26 55.23 55.218 55.198 55.13 55.103 55.06 54.998 54.943 54.91 54.945 54.903 54.865 54.785 54.79 54.76 54.718 54.713 54.658 54.59 54.565 54.508 54.478 54.288 53.528 52.545 51.938 51.845 52.285 53.163 54.503 54.908 55.065 55.11 55.03 54.715 53.54 52.073 50.78 50.413 50.243 50.028 50.008 49.935 49.755 49.565 49.55 49.348 49.343 49.333 49.178 48.923 48.76 48.583 48.545 48.468 48.408 48.418 48.423 48.348 48.325 48.458 48.568 48.56 48.495 48.47 48.428 48.39 48.338 48.215 48.153 47.905 47.68 47.56 47.368 47.175 47.008 46.96 46.91 46.94 46.95 46.915 46.895 46.888 46.925 46.928 46.83 46.733 46.748 46.833 46.838 46.798 46.83 46.795 46.768 46.788 46.803 46.783 46.728 46.77 46.773 46.845 46.783 46.743 46.8 46.78 46.768 46.74 46.755 46.808 46.783 46.793 46.808 46.79 46.798 46.768 46.748 46.748 46.745 46.738 46.713 46.728 46.74 46.785 46.77 46.765 46.728 46.793 46.748 46.758 46.788 46.773 46.79 46.815 46.885 46.863 46.865 46.833 46.838 46.793 46.785 46.765 46.8 46.81 46.798 46.825 46.813 46.83 46.818 46.853 46.795 46.788 46.773 46.788 46.748 46.72 46.733 46.755 46.735 46.723 46.715 46.733 46.738 46.718 46.683 46.633 46.64 46.663 46.668 46.64 46.64 46.63 46.63 46.625 46.668 46.66 46.643 46.658 46.668 46.675 46.655 46.618 46.635 46.65 46.685 46.733 46.733 46.688 46.255 46.055 46.375 46.513 46.723 46.895 47 46.868 46.42 46.288 46.32 46.385 46.633 46.765 46.858 46.953 47.225 47.223 47.32 47.563 47.505 47.685 47.805 47.92 48.048 48.083 48.08 48.088 48.073 48.08 48.125 48.13 48.13 48.133 48.15 48.245 48.248 48.2 48.295 48.38 48.265 48.303 48.253 48.238 48.288 48.338 48.383 48.408 48.418 48.398 48.38 48.46 48.458 48.568 48.588 48.6 48.69 48.588 48.598 48.603 48.638 48.57 48.62 48.8 48.968 48.915 48.97 49.035 49.13 49.283 49.44 49.498 49.543 49.59 49.605 49.59 49.725 50.795 50.978 51.033 51.073 51.05 51.173 51.325 51.448 51.413 51.343 51.345 51.45 51.513 51.71 51.933 52.148 52.358 52.555 52.615 52.67 52.895 52.968 53.17 53.625 53.79 53.925 54.06 54.255 54.47 54.54 54.593 54.627 54.582 54.7 54.69 55.087
69.425 69.328 69.185 69.168 69.095 69.01 68.975 68.903 68.895 68.853 68.715 68.685 68.443 68.355 68.3 68.255 68.225 68.19 68.145 68.1 68.11 67.998 67.88 67.72 67.398 67.358 67.325 67.31 67.288 67.17 66.798 66.793 66.69 66.588 66.335 66.068 66.045 66.068 66.035 66.105 65.93 65.773 65.625 65.595 64.525 63.655 63.425 63.33 63.438 63.52 63.45 63.473 63.61 63.64 63.625 63.305 63.343 63.338 63.175 63.003 62.94 62.938 62.773 62.608 62.52 62.38 62.22 61.99 62.048 61.928 61.775 61.505 61.33 61.22 61.103 60.99 60.853 60.79 60.708 60.665 60.538 60.43 60.403 60.405 60.395 60.24 60.028 59.725 59.48 59.678 59.57 59.19 59.088 58.995 58.705 58.625 58.555 58.49 58.305 58.168 57.443 56.293 56.21 56.158 56.168 56.11 56.148 56.073 56.075 56.068 56.045 55.975 55.91 55.925 55.955 55.87 55.815 55.785 55.74 55.643 55.488 55.455 55.48 55.49 55.498 55.48 55.513 55.498 55.428 55.46 55.445 55.42 55.4 55.383 55.42 55.388 55.33 55.355 55.305 55.288 55.23 55.263 55.233 55.19 55.145 55.078 55.033 54.98 54.935 54.945 54.913 54.875 54.84 54.81 54.828 54.758 54.745 54.72 54.673 54.675 54.57 54.545 54.505 54.243 53.55 52.6 51.978 51.935 52.29 53.218 54.545 54.938 55.06 55.09 55.02 54.69 53.468 52.003 50.68 50.465 50.35 49.96 49.873 49.853 49.73 49.62 49.468 49.353 49.335 49.36 49.265 48.885 48.753 48.568 48.525 48.435 48.403 48.405 48.4 48.31 48.29 48.415 48.505 48.538 48.503 48.478 48.458 48.388 48.288 48.285 48.248 47.975 47.753 47.52 47.373 47.25 47.045 47.003 47.008 46.925 46.945 46.925 46.91 46.878 46.873 46.91 46.853 46.763 46.793 46.853 46.825 46.813 46.77 46.81 46.768 46.8 46.838 46.778 46.755 46.76 46.818 46.758 46.755 46.755 46.8 46.753 46.788 46.748 46.765 46.79 46.783 46.785 46.795 46.785 46.79 46.805 46.76 46.75 46.755 46.8 46.768 46.758 46.775 46.75 46.73 46.72 46.755 46.78 46.79 46.748 46.753 46.775 46.778 46.778 46.823 46.77 46.775 46.8 46.808 46.783 46.783 46.77 46.778 46.82 46.793 46.823 46.783 46.8 46.798 46.823 46.823 46.805 46.775 46.82 46.778 46.768 46.745 46.725 46.7 46.745 46.743 46.738 46.708 46.71 46.703 46.688 46.675 46.688 46.685 46.655 46.648 46.633 46.613 46.62 46.635 46.663 46.665 46.678 46.638 46.648 46.648 46.643 46.63 46.615 46.695 46.733 46.715 46.745 46.513 46.1 46.235 46.415 46.528 46.748 46.86 46.893 46.753 46.491 46.493 46.49 46.45 46.728 46.93 46.978 47.15 47.145 47.268 47.32 47.448 47.57 47.77 47.928 47.95 48.03 48.07 48.07 48.08 48.085 48.035 48.078 48.08 48.158 48.123 48.163 48.233 48.24 48.35 48.413 48.4 48.323 48.353 48.348 48.305 48.335 48.358 48.385 48.415 48.398 48.42 48.448 48.458 48.558 48.595 48.618 48.675 48.568 48.523 48.58 48.618 48.65 48.735 49.053 49.068 49.045 49.088 49.083 49.198 49.32 49.49 49.51 49.588 49.573 49.575 49.613 49.938 50.8 50.99 51.043 51.125 51.13 51.225 51.345 51.458 51.453 51.448 51.578 51.545 51.64 51.805 51.97 52.148 52.34 52.545 52.668 52.88 52.975 52.985 53.173 53.415 53.693 53.868 53.95 54.113 54.285 54.455 54.595 54.542 54.552 54.675 54.747 55.415
69.308 69.248 69.153 68.95 68.983 68.91 68.87 68.81 68.765 68.75 68.59 68.625 68.51 68.33 68.255 68.235 68.203 68.16 68.115 68.078 68.055 67.943 67.798 67.498 67.433 67.395 67.355 67.27 67.153 66.978 66.77 66.603 66.543 66.475 66.343 66.12 66.088 66.075 65.995 66.103 65.955 65.768 65.675 64.808 63.83 63.538 63.378 63.545 63.593 63.588 63.47 63.613 63.725 63.655 63.578 63.223 63.338 63.33 63.22 63.178 63.093 63.035 63.045 62.89 62.663 62.415 62.24 62.133 62.095 62 61.92 61.708 61.463 61.488 61.345 61.42 61.288 60.96 60.835 60.695 60.633 60.538 60.443 60.42 60.433 60.4 60.15 59.745 59.575 59.69 59.435 59.353 59.273 59.11 58.755 58.773 58.683 58.54 58.358 58.255 57.538 56.335 56.235 56.248 56.185 56.15 56.118 56.073 56.033 56.038 56.04 55.985 55.94 55.903 55.908 55.883 55.873 55.803 55.745 55.688 55.583 55.505 55.528 55.468 55.515 55.46 55.465 55.443 55.44 55.45 55.44 55.42 55.433 55.425 55.39 55.36 55.32 55.338 55.28 55.265 55.26 55.253 55.223 55.2 55.118 55.058 55.028 54.98 54.935 54.913 54.908 54.855 54.863 54.825 54.803 54.745 54.745 54.728 54.68 54.638 54.59 54.555 54.535 54.368 53.555 52.518 51.923 51.958 52.25 53.265 54.603 55.01 55.063 55.08 54.973 54.648 53.638 51.933 50.763 50.448 50.17 49.878 49.863 49.783 49.705 49.59 49.45 49.37 49.35 49.358 49.353 48.943 48.723 48.58 48.5 48.53 48.4 48.345 48.338 48.273 48.33 48.368 48.48 48.52 48.513 48.46 48.463 48.375 48.305 48.368 48.273 48.088 47.838 47.605 47.478 47.323 47.16 47.048 47.003 46.955 46.923 46.905 46.893 46.905 46.903 46.888 46.85 46.803 46.77 46.85 46.85 46.825 46.803 46.798 46.808 46.798 46.815 46.79 46.773 46.79 46.813 46.805 46.805 46.753 46.738 46.76 46.778 46.728 46.778 46.795 46.8 46.773 46.788 46.765 46.828 46.813 46.82 46.825 46.768 46.75 46.785 46.715 46.743 46.745 46.803 46.77 46.74 46.773 46.803 46.785 46.79 46.778 46.758 46.745 46.793 46.768 46.795 46.743 46.75 46.78 46.778 46.77 46.785 46.8 46.805 46.798 46.813 46.775 46.775 46.823 46.793 46.795 46.78 46.788 46.778 46.81 46.81 46.79 46.795 46.768 46.75 46.738 46.678 46.715 46.675 46.728 46.673 46.683 46.643 46.633 46.643 46.628 46.618 46.638 46.62 46.61 46.62 46.66 46.645 46.633 46.645 46.63 46.603 46.61 46.618 46.698 46.713 46.793 46.713 46.455 46.053 46.263 46.47 46.46 46.705 46.84 46.868 46.733 46.53 46.383 46.365 46.48 46.863 46.97 47.07 47.135 47.193 47.278 47.315 47.433 47.695 47.78 47.805 47.965 47.945 48.09 48.093 48.063 48.085 48.07 48.08 48.083 48.153 48.238 48.26 48.233 48.26 48.34 48.428 48.388 48.39 48.368 48.38 48.39 48.395 48.44 48.39 48.39 48.418 48.438 48.41 48.558 48.593 48.62 48.573 48.63 48.643 48.68 48.678 48.725 48.868 49.208 49.19 49.16 49.195 49.27 49.358 49.458 49.488 49.56 49.583 49.555 49.585 49.635 50.545 50.938 51.058 51.073 51.153 51.213 51.248 51.305 51.385 51.455 51.48 51.883 52.073 52.168 52.065 52.305 52.488 52.62 52.64 52.735 52.95 52.995 53.058 53.305 53.57 53.735 53.878 53.968 53.935 53.92 53.965 54.155 54.307 54.33 54.49 54.685 55.475
69.255 69.16 69.033 68.845 68.793 68.828 68.748 68.7 68.663 68.63 68.573 68.523 68.478 68.305 68.173 68.215 68.175 68.135 68.09 68.08 67.98 67.86 67.655 67.505 67.465 67.428 67.31 67.175 67.078 67.01 66.858 66.668 66.585 66.4 66.333 66.193 66.048 65.893 65.915 65.92 65.838 65.813 65.64 64.193 63.733 63.675 63.573 63.61 63.668 63.62 63.648 63.723 63.648 63.593 63.52 63.473 63.368 63.335 63.29 63.138 63.105 63.125 63.165 63.193 63.088 62.385 62.148 62.128 62.105 62.073 61.943 61.73 61.495 61.61 61.443 61.578 61.545 61.263 61.063 60.79 60.715 60.54 60.445 60.33 60.18 60.258 60.37 60.065 59.888 59.643 59.54 59.503 59.375 59.31 58.928 58.835 58.698 58.54 58.42 58.33 57.595 56.415 56.275 56.258 56.138 56.11 56.163 56.095 56.028 56.025 56.02 55.963 55.945 55.943 55.903 55.883 55.845 55.795 55.745 55.705 55.603 55.545 55.573 55.523 55.503 55.49 55.493 55.475 55.453 55.473 55.438 55.46 55.428 55.453 55.44 55.383 55.33 55.3 55.273 55.26 55.253 55.233 55.195 55.14 55.065 55.055 54.99 54.988 54.978 54.93 54.895 54.878 54.873 54.858 54.83 54.785 54.763 54.705 54.683 54.635 54.585 54.61 54.593 54.26 53.515 52.565 52.088 52.093 52.28 53.285 54.615 55.028 55.073 55.083 54.885 54.528 53.613 52.005 50.685 50.413 50.185 49.935 49.808 49.713 49.595 49.558 49.435 49.358 49.328 49.333 49.378 49.048 48.73 48.615 48.56 48.495 48.373 48.338 48.31 48.273 48.295 48.358 48.4 48.493 48.45 48.45 48.48 48.378 48.358 48.345 48.328 48.415 48.113 47.745 47.535 47.388 47.17 47.055 47.015 46.983 46.928 46.905 46.923 46.84 46.823 46.875 46.865 46.845 46.788 46.888 46.905 46.828 46.793 46.808 46.803 46.785 46.758 46.798 46.795 46.785 46.785 46.795 46.753 46.81 46.778 46.773 46.775 46.785 46.798 46.788 46.768 46.778 46.75 46.793 46.765 46.785 46.815 46.81 46.8 46.76 46.835 46.755 46.74 46.76 46.75 46.76 46.748 46.76 46.768 46.795 46.788 46.763 46.745 46.755 46.783 46.775 46.78 46.703 46.73 46.74 46.803 46.75 46.755 46.82 46.78 46.808 46.815 46.803 46.795 46.813 46.8 46.775 46.785 46.775 46.785 46.785 46.765 46.828 46.755 46.805 46.77 46.74 46.79 46.748 46.705 46.658 46.69 46.665 46.64 46.655 46.678 46.583 46.573 46.635 46.62 46.6 46.605 46.633 46.668 46.64 46.64 46.628 46.563 46.588 46.59 46.605 46.67 46.713 46.748 46.678 46.403 46.06 46.283 46.42 46.518 46.775 46.89 46.845 46.564 46.39 46.312 46.322 46.63 46.978 47.013 47.113 47.145 47.273 47.338 47.46 47.485 47.513 47.675 47.848 47.878 47.953 48.033 48.1 48.128 48.16 48.21 48.115 48.195 48.193 48.283 48.245 48.245 48.318 48.355 48.298 48.315 48.35 48.34 48.41 48.49 48.513 48.535 48.493 48.455 48.41 48.493 48.548 48.605 48.62 48.63 48.635 48.693 48.69 48.72 48.743 48.835 49.145 49.248 49.245 49.31 49.4 49.468 49.525 49.648 49.645 49.585 49.618 49.593 49.688 50.875 51.023 51.065 51.178 51.223 51.293 51.303 51.32 51.355 51.435 51.53 51.995 52.205 52.308 52.405 52.51 52.725 52.78 52.74 52.673 52.95 52.953 53.178 53.495 53.63 53.765 53.918 53.95 53.945 53.94 53.935 53.915 53.86 54.125 54.575 55.032 55.607
69.09 69.045 68.928 68.855 68.728 68.578 68.615 68.608 68.55 68.525 68.495 68.438 68.465 68.308 68.16 68.183 68.148 68.105 68.063 68.008 67.928 67.795 67.585 67.535 67.503 67.35 67.208 67.11 67.04 66.97 66.903 66.76 66.625 66.808 66.563 66.253 65.893 65.728 65.715 65.675 65.745 65.723 64.863 63.74 63.623 63.573 63.67 63.703 63.745 63.688 63.69 63.633 63.535 63.53 63.483 63.445 63.365 63.305 63.305 63.198 63.17 63.215 63.265 63.3 63.225 62.368 62.123 62.135 62.11 62.063 61.883 61.695 61.5 61.51 61.438 61.388 61.353 61.068 60.915 60.83 60.79 60.645 60.465 60.375 60.355 60.335 60.515 60.448 60.22 59.923 59.705 59.605 59.588 59.608 59.29 59.048 58.753 58.56 58.49 58.43 57.843 56.765 56.35 56.268 56.213 56.183 56.123 56.113 56.095 56.028 56.018 55.948 55.938 55.925 55.893 55.848 55.87 55.81 55.748 55.663 55.608 55.598 55.575 55.558 55.535 55.535 55.505 55.495 55.49 55.495 55.468 55.498 55.49 55.518 55.445 55.42 55.378 55.33 55.27 55.28 55.275 55.213 55.133 55.098 55.043 55.038 55.015 55.04 54.953 54.908 54.883 54.88 54.84 54.81 54.8 54.785 54.728 54.693 54.705 54.613 54.673 54.63 54.625 54.368 53.47 52.588 52.078 52.128 52.403 53.258 54.38 54.935 55.075 55.098 54.96 54.613 53.673 51.985 50.713 50.408 50.16 49.843 49.8 49.715 49.64 49.543 49.435 49.363 49.28 49.29 49.388 49.13 48.703 48.603 48.488 48.473 48.343 48.338 48.305 48.318 48.21 48.243 48.315 48.455 48.46 48.478 48.44 48.408 48.383 48.308 48.255 48.363 48.143 47.818 47.578 47.43 47.225 47.048 47.013 46.983 46.98 46.89 46.918 46.89 46.86 46.855 46.863 46.89 46.895 46.9 46.845 46.858 46.848 46.795 46.788 46.8 46.755 46.77 46.75 46.755 46.768 46.8 46.805 46.77 46.78 46.773 46.78 46.77 46.748 46.778 46.775 46.778 46.758 46.79 46.76 46.803 46.788 46.808 46.808 46.793 46.765 46.785 46.8 46.76 46.745 46.74 46.745 46.755 46.758 46.783 46.78 46.748 46.74 46.735 46.798 46.75 46.753 46.625 46.693 46.733 46.783 46.785 46.753 46.788 46.775 46.785 46.765 46.773 46.78 46.805 46.788 46.85 46.8 46.77 46.773 46.765 46.853 46.823 46.78 46.755 46.705 46.748 46.758 46.713 46.725 46.703 46.683 46.64 46.673 46.668 46.6 46.6 46.61 46.628 46.618 46.618 46.61 46.653 46.628 46.613 46.668 46.618 46.603 46.568 46.538 46.578 46.63 46.66 46.67 46.705 46.628 46.4 45.995 46.343 46.435 46.663 46.8 46.865 46.75 46.485 46.354 46.265 46.373 46.57 46.923 47.06 47.085 47.165 47.323 47.388 47.48 47.538 47.563 47.65 47.748 47.9 48.025 48.125 48.125 48.153 48.158 48.125 48.143 48.28 48.383 48.205 48.26 48.313 48.278 48.248 48.238 48.273 48.315 48.468 48.523 48.545 48.508 48.563 48.573 48.54 48.488 48.55 48.62 48.653 48.673 48.693 48.713 48.718 48.735 48.76 48.833 49.103 49.253 49.348 49.44 49.525 49.59 49.675 49.828 49.643 49.625 49.635 49.63 50 50.995 51.068 51.123 51.27 51.283 51.343 51.358 51.375 51.393 51.413 51.488 52.045 52.21 52.32 52.468 52.625 52.768 52.843 52.855 53.065 53.003 52.975 53.345 53.558 53.67 53.838 53.985 53.97 53.965 53.96 53.958 53.958 53.877 54.262 54.572 55.167 55.762
68.938 68.963 68.885 68.818 68.72 68.645 68.453 68.488 68.423 68.375 68.388 68.375 68.39 68.333 68.18 68.123 68.165 68.075 68.038 67.993 67.843 67.68 67.605 67.57 67.408 67.243 67.14 67.07 67.003 66.935 66.87 66.8 66.68 66.763 66.55 66.45 66.318 66.05 65.445 65.253 65.175 65.263 64.165 63.768 63.678 63.673 63.813 63.645 63.775 63.818 63.695 63.488 63.393 63.46 63.373 63.375 63.33 63.31 63.283 63.253 63.2 63.24 63.278 63.338 63.2 62.86 62.083 62.108 62.108 62.143 61.94 61.73 61.515 61.43 61.345 61.263 61.15 60.93 60.858 60.705 60.655 60.623 60.515 60.5 60.38 60.408 60.71 60.823 60.49 60.308 60.105 60.028 60.275 60.295 60.105 59.84 59.303 58.763 58.598 58.52 58.273 57.513 57.138 57.053 57.018 56.985 56.915 56.888 56.803 56.79 56.753 56.753 56.793 56.718 56.705 56.56 56.565 56.643 56.375 55.898 55.663 55.615 55.6 55.56 55.565 55.565 55.52 55.515 55.51 55.528 55.538 55.545 55.5 55.495 55.475 55.463 55.415 55.365 55.323 55.27 55.208 55.198 55.118 55.118 55.068 54.995 55.01 54.98 54.938 54.905 54.905 54.86 54.828 54.825 54.8 54.773 54.758 54.703 54.688 54.613 54.648 54.635 54.598 54.433 53.56 52.638 52.073 52.115 52.32 53.283 54.42 54.973 55.053 55.073 55.02 54.563 53.545 51.938 50.693 50.453 50.198 49.853 49.78 49.713 49.655 49.5 49.408 49.38 49.26 49.235 49.333 49.27 48.803 48.648 48.473 48.445 48.365 48.338 48.32 48.22 48.235 48.258 48.298 48.36 48.388 48.433 48.395 48.385 48.355 48.305 48.285 48.335 48.195 47.903 47.663 47.4 47.248 47.138 46.98 46.988 46.938 46.888 46.918 46.86 46.87 46.838 46.893 46.93 46.858 46.88 46.93 46.875 46.85 46.818 46.805 46.858 46.79 46.815 46.785 46.78 46.78 46.798 46.833 46.813 46.783 46.813 46.778 46.755 46.785 46.755 46.78 46.778 46.793 46.775 46.79 46.825 46.768 46.755 46.813 46.775 46.788 46.795 46.835 46.778 46.783 46.788 46.79 46.778 46.765 46.755 46.745 46.74 46.733 46.708 46.825 46.735 46.733 46.623 46.768 46.745 46.735 46.765 46.775 46.76 46.753 46.765 46.79 46.783 46.76 46.755 46.763 46.78 46.783 46.78 46.785 46.79 46.815 46.78 46.775 46.755 46.738 46.715 46.68 46.703 46.673 46.65 46.708 46.698 46.653 46.683 46.69 46.63 46.608 46.615 46.618 46.623 46.633 46.613 46.578 46.585 46.63 46.615 46.605 46.568 46.543 46.57 46.613 46.593 46.665 46.675 46.733 46.52 46.033 46.098 46.35 46.55 46.68 46.805 46.805 46.698 46.418 46.231 46.133 46.303 46.605 46.923 47.058 47.15 47.24 47.335 47.445 47.548 47.545 47.675 47.763 47.85 47.905 47.96 47.873 48.02 47.938 47.965 48.048 48.17 48.173 48.21 48.248 48.275 48.275 48.24 48.185 48.28 48.333 48.445 48.505 48.52 48.538 48.555 48.615 48.593 48.54 48.55 48.603 48.64 48.68 48.713 48.733 48.768 48.743 48.79 48.943 49.218 49.31 49.418 49.565 49.653 49.73 49.905 49.763 49.625 49.595 49.588 49.675 49.99 50.82 51.065 51.245 51.305 51.363 51.385 51.403 51.418 51.433 51.448 51.433 51.968 52.163 52.363 52.473 52.58 52.703 52.848 53.038 52.988 52.908 53.063 53.465 53.668 53.713 53.875 53.995 53.99 53.985 53.983 53.98 53.975 53.925 54.46 54.702 55.555 55.907
68.943 68.958 68.943 68.908 68.88 68.685 68.553 68.318 68.228 68.24 68.273 68.303 68.29 68.273 68.165 68.218 68.193 68.113 68.03 67.885 67.793 67.683 67.635 67.463 67.275 67.17 67.103 67.035 66.97 66.9 66.83 66.76 66.58 66.58 66.473 66.438 66.463 66.248 65.29 64.703 64.308 64.09 64.025 63.968 63.79 63.808 63.973 63.883 63.883 63.933 63.59 63.45 63.503 63.47 63.398 63.36 63.343 63.315 63.29 63.265 63.248 63.26 63.288 63.345 63.155 62.473 61.915 62.105 62.07 62.193 62.023 61.853 61.683 61.538 61.425 61.288 61.085 61.008 60.935 60.885 60.855 60.835 60.738 60.655 60.538 60.678 60.958 60.985 60.793 60.708 60.508 60.505 60.78 60.918 60.85 60.558 60.043 59.468 58.898 58.568 58.448 58.258 58.135 58.108 58.05 58.043 57.965 57.878 57.785 57.785 57.773 57.728 57.618 57.56 57.458 57.38 57.213 57.11 56.89 56.25 55.788 55.645 55.61 55.6 55.593 55.593 55.55 55.505 55.553 55.523 55.525 55.543 55.528 55.493 55.53 55.47 55.44 55.365 55.325 55.305 55.235 55.198 55.168 55.145 55.12 55.045 55.035 55 54.94 54.94 54.918 54.875 54.84 54.835 54.855 54.788 54.778 54.73 54.66 54.613 54.595 54.6 54.583 54.278 53.575 52.598 52.09 51.955 52.28 53.368 54.515 54.923 55.05 55.08 55.015 54.463 53.298 51.82 50.763 50.423 50.123 49.843 49.82 49.705 49.638 49.448 49.348 49.348 49.258 49.228 49.29 49.258 48.835 48.613 48.508 48.433 48.413 48.355 48.27 48.243 48.18 48.153 48.235 48.295 48.405 48.37 48.345 48.303 48.345 48.355 48.39 48.315 48.19 47.903 47.673 47.443 47.25 47.11 46.97 46.925 46.888 46.875 46.838 46.828 46.84 46.795 46.833 46.85 46.793 46.833 46.86 46.88 46.868 46.918 46.84 46.83 46.808 46.81 46.813 46.783 46.785 46.823 46.77 46.8 46.773 46.768 46.778 46.785 46.74 46.785 46.778 46.795 46.803 46.79 46.785 46.743 46.755 46.79 46.785 46.783 46.763 46.78 46.798 46.77 46.745 46.79 46.795 46.768 46.763 46.76 46.76 46.76 46.8 46.743 46.745 46.743 46.75 46.683 46.765 46.773 46.72 46.725 46.715 46.755 46.73 46.74 46.76 46.753 46.765 46.743 46.763 46.75 46.73 46.715 46.77 46.763 46.735 46.725 46.77 46.763 46.74 46.75 46.723 46.693 46.683 46.668 46.665 46.695 46.683 46.67 46.655 46.653 46.66 46.653 46.603 46.615 46.598 46.568 46.573 46.573 46.605 46.608 46.58 46.563 46.568 46.57 46.585 46.598 46.593 46.62 46.663 46.688 46.41 46.053 46.223 46.44 46.59 46.733 46.775 46.778 46.57 46.183 46.085 46.09 46.3 46.68 46.978 47.14 47.143 47.188 47.353 47.483 47.488 47.575 47.73 47.825 47.878 47.823 47.86 47.945 47.938 47.973 47.998 48.028 48.045 48.135 48.17 48.153 48.258 48.26 48.295 48.34 48.428 48.485 48.5 48.5 48.493 48.568 48.618 48.58 48.573 48.53 48.585 48.625 48.67 48.71 48.75 48.723 48.703 48.788 49.08 49.278 49.315 49.44 49.625 49.775 49.803 49.593 49.595 49.615 49.615 49.61 49.718 50.393 50.985 51.155 51.233 51.318 51.403 51.433 51.398 51.415 51.435 51.433 51.463 51.695 52.003 52.28 52.405 52.6 52.728 52.94 53 52.97 53.02 53.18 53.478 53.635 53.743 53.853 54.015 54.01 54.008 54.005 54 53.995 53.967 54.505 54.797 55.735 55.927
